ply
format ascii 1.0
comment PCL generated
element vertex 1022
property float x
property float y
property float z
property uchar red
property uchar green
property uchar blue
property uchar alpha
element camera 0
property float view_px
property float view_py
property float view_pz
property float x_axisx
property float x_axisy
property float x_axisz
property float y_axisx
property float y_axisy
property float y_axisz
property float z_axisx
property float z_axisy
property float z_axisz
property float focal
property float scalex
property float scaley
property float centerx
property float centery
property int viewportx
property int viewporty
property float k1
property float k2
end_header
-0.029749766 0.10844917 0.042323574 0 0 0 255
-0.029342862 0.10859726 0.042073581 0 0 0 255
-0.028878685 0.10877366 0.041933574 0 0 0 255
-0.028414506 0.10895005 0.04179357 0 0 0 255
-0.027950667 0.10912738 0.041653559 0 0 0 255
-0.027486492 0.10930377 0.041513551 0 0 0 255
-0.027079588 0.10945187 0.041263558 0 0 0 255
-0.026615411 0.10962826 0.04112355 0 0 0 255
-0.026151229 0.10980465 0.040983547 0 0 0 255
-0.025744325 0.10995274 0.040733553 0 0 0 255
-0.02533742 0.11010084 0.04048356 0 0 0 255
-0.024930516 0.11024893 0.040233567 0 0 0 255
-0.024523612 0.11039703 0.039983571 0 0 0 255
-0.024173986 0.11051684 0.039623588 0 0 0 255
-0.023767084 0.11066493 0.039373595 0 0 0 255
-0.023302902 0.11084132 0.039233591 0 0 0 255
-0.022838723 0.11101771 0.039093584 0 0 0 255
-0.022431819 0.11116581 0.038843591 0 0 0 255
-0.021967638 0.1113422 0.038703583 0 0 0 255
-0.021560734 0.11149029 0.03845359 0 0 0 255
-0.02115383 0.1116384 0.038203597 0 0 0 255
-0.020746926 0.11178649 0.037953604 0 0 0 255
-0.020282747 0.11196288 0.0378136 0 0 0 255
-0.019875843 0.11211098 0.037563607 0 0 0 255
-0.019468939 0.11225908 0.037313614 0 0 0 255
-0.019004757 0.11243546 0.037173606 0 0 0 255
-0.018597852 0.11258356 0.036923613 0 0 0 255
-0.01819095 0.11273166 0.036673617 0 0 0 255
-0.017784046 0.11287975 0.036423624 0 0 0 255
-0.01743442 0.11299956 0.036063645 0 0 0 255
-0.017027516 0.11314765 0.035813652 0 0 0 255
-0.016677886 0.11326745 0.03545367 0 0 0 255
-0.016328258 0.11338725 0.035093691 0 0 0 255
-0.016035907 0.11347876 0.034623723 0 0 0 255
-0.015686275 0.11359856 0.034263745 0 0 0 255
-0.015336644 0.11371837 0.033903766 0 0 0 255
-0.014986676 0.11383723 0.033543792 0 0 0 255
-0.014637046 0.11395703 0.033183809 0 0 0 255
-0.014287415 0.11407682 0.032823831 0 0 0 255
-0.013938255 0.11419646 0.032462984 0 0 0 255
-0.013645901 0.11428796 0.03199302 0 0 0 255
-0.013353551 0.11437946 0.031523053 0 0 0 255
-0.013003923 0.11449928 0.031163072 0 0 0 255
-0.012711568 0.11459078 0.030693108 0 0 0 255
-0.012419684 0.11468212 0.030222274 0 0 0 255
-0.012069583 0.11480208 0.02986316 0 0 0 255
-0.011720428 0.11492172 0.029502314 0 0 0 255
-0.011427727 0.11501227 0.02903235 0 0 0 255
-0.011078101 0.11513208 0.028672371 0 0 0 255
-0.010728472 0.11525188 0.028312389 0 0 0 255
-0.010378844 0.11537169 0.027952414 0 0 0 255
-0.0099719409 0.11551978 0.027702421 0 0 0 255
-0.0095650367 0.11566788 0.027452428 0 0 0 255
-0.0091581326 0.11581597 0.027202435 0 0 0 255
-0.0087512285 0.11596407 0.02695244 0 0 0 255
-0.0083443243 0.11611217 0.026702447 0 0 0 255
-0.0078801438 0.11628856 0.026562436 0 0 0 255
-0.007530516 0.11640836 0.026202461 0 0 0 255
-0.0072381608 0.11649987 0.025732491 0 0 0 255
-0.0068885302 0.11661966 0.025372513 0 0 0 255
-0.0065393737 0.1167393 0.025011666 0 0 0 255
-0.0061324695 0.11688739 0.024761673 0 0 0 255
-0.005782838 0.1170072 0.024401695 0 0 0 255
-0.0055477601 0.11707041 0.023821741 0 0 0 255
-0.0052554039 0.11716191 0.023351777 0 0 0 255
-0.0049057771 0.11728172 0.022991799 0 0 0 255
-0.0045558084 0.11740057 0.02263182 0 0 0 255
-0.0042061768 0.11752038 0.022271842 0 0 0 255
-0.0037992727 0.11766847 0.022021849 0 0 0 255
-0.0034501124 0.1177881 0.021661 0 0 0 255
-0.0030432101 0.11793619 0.021411009 0 0 0 255
-0.0027508568 0.11802771 0.02094104 0 0 0 255
-0.0024012309 0.11814751 0.020581061 0 0 0 255
-0.0021088738 0.11823902 0.020111091 0 0 0 255
-0.0018165167 0.11833051 0.019641131 0 0 0 255
-0.0015241634 0.11842202 0.019171163 0 0 0 255
-0.0011745375 0.11854182 0.018811185 0 0 0 255
-0.00088265538 0.11863316 0.018340353 0 0 0 255
-0.00058995932 0.11872374 0.017870387 0 0 0 255
-0.00029760227 0.11881524 0.017400423 0 0 0 255
-5.2452087e-06 0.11890674 0.016930457 0 0 0 255
0.00028663501 0.11899807 0.016459625 0 0 0 255
0.00057899021 0.11908957 0.015989657 0 0 0 255
0.00087134168 0.11918109 0.015519694 0 0 0 255
0.0011064224 0.1192443 0.01493974 0 0 0 255
0.0013991166 0.11933488 0.014469774 0 0 0 255
0.0015764534 0.11936961 0.013778969 0 0 0 255
0.0017542578 0.11940452 0.013089031 0 0 0 255
0.0019315891 0.11943927 0.012398229 0 0 0 255
0.0020524599 0.11944495 0.011598303 0 0 0 255
0.0022297949 0.1194797 0.010907499 0 0 0 255
0.0022930484 0.11945803 0.0099975895 0 0 0 255
0.0024134479 0.11946353 0.0091967974 0 0 0 255
0.0025339779 0.11947016 0.0083968733 0 0 0 255
0.0025398266 0.11941908 0.0073761102 0 0 0 255
0.0026603583 0.1194257 0.0065761879 0 0 0 255
0.0028376896 0.11946045 0.0058853831 0 0 0 255
0.0028440151 0.11940954 0.0048654862 0 0 0 255
0.0026204232 0.11924621 0.0034047775 0 0 0 255
0.001823822 0.11879773 0.00084247626 0 0 0 255
0.0013714749 0.11852029 -0.0010581762 0 0 0 255
-0.092383251 0.086310834 0.078766875 0 0 0 255
-0.091288581 0.086798646 0.079837583 0 0 0 255
-0.09036538 0.087200619 0.080578327 0 0 0 255
-0.089671634 0.087490365 0.080879137 0 0 0 255
-0.088921078 0.087808236 0.081289053 0 0 0 255
-0.088227808 0.088097811 0.081588991 0 0 0 255
-0.087591335 0.088359252 0.081779815 0 0 0 255
-0.086955331 0.088620529 0.081969768 0 0 0 255
-0.086491153 0.088796914 0.081829756 0 0 0 255
-0.085911945 0.089030072 0.081910588 0 0 0 255
-0.085390493 0.089234754 0.081880569 0 0 0 255
-0.084926307 0.089411139 0.081740558 0 0 0 255
-0.084462136 0.089587539 0.081600554 0 0 0 255
-0.08405523 0.089735627 0.081350565 0 0 0 255
-0.083648331 0.08988373 0.081100568 0 0 0 255
-0.083298698 0.090003528 0.080740586 0 0 0 255
-0.082891792 0.090151623 0.080490589 0 0 0 255
-0.082484886 0.090299718 0.0802406 0 0 0 255
-0.082020707 0.090476111 0.080100596 0 0 0 255
-0.081556529 0.090652511 0.079960585 0 0 0 255
-0.081035078 0.090857185 0.079930566 0 0 0 255
-0.080570906 0.091033578 0.079790562 0 0 0 255
-0.080164 0.091181681 0.079540566 0 0 0 255
-0.07952752 0.091443121 0.07973139 0 0 0 255
-0.078665018 0.091814503 0.080355212 0 0 0 255
-0.078039564 0.092062362 0.080520049 0 0 0 255
-0.077523783 0.092260718 0.080477044 0 0 0 255
-0.07700754 0.092459261 0.080434896 0 0 0 255
-0.076546445 0.092632398 0.080287963 0 0 0 255
-0.076084867 0.092805721 0.080141887 0 0 0 255
-0.075732633 0.092928596 0.07978797 0 0 0 255
-0.075325727 0.093076691 0.07953798 0 0 0 255
-0.074918821 0.093224786 0.079287991 0 0 0 255
-0.074402586 0.093423322 0.07924585 0 0 0 255
-0.073941007 0.093596637 0.079099774 0 0 0 255
-0.073588774 0.093719512 0.078745857 0 0 0 255
-0.073181868 0.093867615 0.078495868 0 0 0 255
-0.072829641 0.09399049 0.078141943 0 0 0 255
-0.072586268 0.094063096 0.077581048 0 0 0 255
-0.072397582 0.094110496 0.076916218 0 0 0 255
-0.072099887 0.094209261 0.076459244 0 0 0 255
-0.072031423 0.094193742 0.075561464 0 0 0 255
-0.071910903 0.094200358 0.07476154 0 0 0 255
-0.071790844 0.09420681 0.073960751 0 0 0 255
-0.071785331 0.094156675 0.072939985 0 0 0 255
-0.072123468 0.093936764 0.071259305 0 0 0 255
-0.072576165 0.093660265 0.069358647 0 0 0 255
-0.073316038 0.093243062 0.066907197 0 0 0 255
-0.073367804 0.093164623 0.065776452 0 0 0 255
-0.073075451 0.093256131 0.065306485 0 0 0 255
-0.072783098 0.093347639 0.064836517 0 0 0 255
-0.072548494 0.093410686 0.064255707 0 0 0 255
-0.07225614 0.093502186 0.063785739 0 0 0 255
-0.07196378 0.093593694 0.063315772 0 0 0 255
-0.071728699 0.093656898 0.062735818 0 0 0 255
-0.071379073 0.093776703 0.062375844 0 0 0 255
-0.071029447 0.093896508 0.062015861 0 0 0 255
-0.070679814 0.094016314 0.061655883 0 0 0 255
-0.070330657 0.09413594 0.061295036 0 0 0 255
-0.069923759 0.094284035 0.061045043 0 0 0 255
-0.069574125 0.094403841 0.060685065 0 0 0 255
-0.069167219 0.094551936 0.060435072 0 0 0 255
-0.068760313 0.094700031 0.060185075 0 0 0 255
-0.068353415 0.094848126 0.059935085 0 0 0 255
-0.067946509 0.094996229 0.059685092 0 0 0 255
-0.067596875 0.095116019 0.059325106 0 0 0 255
-0.067189977 0.095264114 0.059075117 0 0 0 255
-0.066783071 0.09541221 0.05882512 0 0 0 255
-0.066376165 0.095560305 0.058575131 0 0 0 255
-0.066026539 0.09568011 0.058215149 0 0 0 255
-0.06556236 0.095856495 0.058075145 0 0 0 255
-0.065212734 0.095976308 0.057715163 0 0 0 255
-0.064748548 0.096152693 0.057575155 0 0 0 255
-0.064341649 0.096300788 0.057325162 0 0 0 255
-0.063934743 0.096448883 0.057075169 0 0 0 255
-0.063527837 0.096596979 0.056825176 0 0 0 255
-0.063120931 0.096745074 0.056575183 0 0 0 255
-0.062714025 0.096893169 0.05632519 0 0 0 255
-0.062364407 0.097012974 0.055965211 0 0 0 255
-0.062014773 0.097132787 0.055605233 0 0 0 255
-0.061550595 0.097309172 0.055465221 0 0 0 255
-0.061200969 0.097428977 0.055105247 0 0 0 255
-0.060794063 0.097577073 0.054855254 0 0 0 255
-0.060329884 0.097753458 0.054715246 0 0 0 255
-0.059922978 0.097901553 0.054465249 0 0 0 255
-0.059573352 0.098021358 0.054105274 0 0 0 255
-0.059166446 0.098169461 0.053855281 0 0 0 255
-0.05875954 0.098317556 0.053605288 0 0 0 255
-0.058352634 0.098465651 0.053355295 0 0 0 255
-0.057945736 0.098613746 0.053105302 0 0 0 255
-0.05753883 0.098761842 0.052855305 0 0 0 255
-0.057131924 0.098909937 0.052605312 0 0 0 255
-0.056725025 0.099058032 0.052355319 0 0 0 255
-0.056318119 0.099206127 0.05210533 0 0 0 255
-0.055911213 0.09935423 0.051855333 0 0 0 255
-0.055504307 0.099502325 0.05160534 0 0 0 255
-0.055097409 0.09965042 0.051355347 0 0 0 255
-0.054747775 0.099770218 0.050995369 0 0 0 255
-0.054340869 0.099918313 0.050745375 0 0 0 255
-0.053991243 0.10003811 0.050385393 0 0 0 255
-0.053641617 0.10015791 0.050025415 0 0 0 255
-0.053234711 0.100306 0.049775422 0 0 0 255
-0.052885082 0.10042581 0.049415439 0 0 0 255
-0.052535452 0.10054561 0.049055465 0 0 0 255
-0.052185826 0.10066541 0.048695482 0 0 0 255
-0.05177892 0.10081351 0.048445489 0 0 0 255
-0.051372014 0.1009616 0.048195496 0 0 0 255
-0.050965112 0.1011097 0.047945503 0 0 0 255
-0.050615951 0.10122932 0.047584657 0 0 0 255
-0.050151303 0.1014059 0.047445513 0 0 0 255
-0.049687125 0.10158229 0.047305509 0 0 0 255
-0.049280219 0.10173038 0.047055513 0 0 0 255
-0.04881604 0.10190677 0.046915509 0 0 0 255
-0.048351865 0.10208316 0.046775501 0 0 0 255
-0.047887687 0.10225955 0.046635494 0 0 0 255
-0.047480784 0.10240765 0.046385501 0 0 0 255
-0.047073878 0.10255575 0.046135508 0 0 0 255
-0.0466097 0.10273214 0.045995504 0 0 0 255
-0.046202794 0.10288024 0.045745507 0 0 0 255
-0.045738615 0.10305663 0.045605503 0 0 0 255
-0.045274436 0.10323302 0.045465492 0 0 0 255
-0.04486753 0.10338111 0.045215499 0 0 0 255
-0.044403352 0.1035575 0.045075491 0 0 0 255
-0.043939173 0.1037339 0.044935487 0 0 0 255
-0.043474995 0.10391029 0.04479548 0 0 0 255
-0.043010347 0.10408685 0.044656336 0 0 0 255
-0.042546168 0.10426324 0.044516332 0 0 0 255
-0.042024709 0.10446792 0.044486307 0 0 0 255
-0.041503258 0.10467261 0.044456288 0 0 0 255
-0.040924527 0.10490559 0.044536252 0 0 0 255
-0.040345334 0.10513875 0.044617087 0 0 0 255
-0.039823875 0.10534344 0.044587061 0 0 0 255
-0.039302424 0.10554812 0.044557042 0 0 0 255
-0.038780972 0.1057528 0.04452702 0 0 0 255
-0.038316786 0.10592919 0.044387016 0 0 0 255
-0.037794866 0.10613405 0.044357862 0 0 0 255
-0.03738796 0.10628214 0.044107869 0 0 0 255
-0.036923781 0.10645854 0.043967862 0 0 0 255
-0.03640233 0.10666323 0.04393784 0 0 0 255
-0.035938151 0.10683961 0.043797832 0 0 0 255
-0.035473969 0.10701601 0.043657824 0 0 0 255
-0.035067067 0.10716411 0.043407828 0 0 0 255
-0.034602884 0.10734049 0.043267824 0 0 0 255
-0.034195982 0.10748859 0.043017834 0 0 0 255
-0.033731803 0.10766498 0.042877823 0 0 0 255
-0.033267621 0.10784137 0.042737816 0 0 0 255
-0.032803446 0.10801776 0.042597808 0 0 0 255
-0.032339267 0.10819416 0.042457804 0 0 0 255
-0.031875089 0.10837055 0.042317796 0 0 0 255
-0.031353164 0.1085754 0.042288639 0 0 0 255
-0.030888986 0.1087518 0.042148631 0 0 0 255
-0.030424805 0.10892818 0.042008627 0 0 0 255
-0.029960627 0.10910458 0.04186862 0 0 0 255
-0.029553723 0.10925268 0.041618627 0 0 0 255
-0.029032271 0.10945737 0.041588608 0 0 0 255
-0.028568089 0.10963375 0.041448601 0 0 0 255
-0.028103912 0.10981014 0.041308589 0 0 0 255
-0.027697008 0.10995824 0.041058596 0 0 0 255
-0.027232826 0.11013462 0.040918592 0 0 0 255
-0.026768304 0.11031009 0.040778581 0 0 0 255
-0.0263614 0.11045819 0.040528588 0 0 0 255
-0.025954498 0.11060628 0.040278595 0 0 0 255
-0.025547594 0.11075438 0.040028602 0 0 0 255
-0.025140688 0.11090247 0.039778609 0 0 0 255
-0.024733786 0.11105057 0.039528616 0 0 0 255
-0.024326881 0.11119866 0.039278623 0 0 0 255
-0.023919977 0.11134676 0.03902863 0 0 0 255
-0.023455329 0.11152332 0.03888949 0 0 0 255
-0.022991152 0.11169971 0.038749482 0 0 0 255
-0.022584248 0.1118478 0.038499489 0 0 0 255
-0.022120068 0.1120242 0.038359482 0 0 0 255
-0.021713164 0.11217229 0.038109489 0 0 0 255
-0.021306261 0.11232039 0.037859492 0 0 0 255
-0.020842083 0.11249678 0.037719484 0 0 0 255
-0.020435179 0.11264487 0.037469491 0 0 0 255
-0.019970996 0.11282127 0.037329488 0 0 0 255
-0.019564092 0.11296936 0.037079494 0 0 0 255
-0.019157188 0.11311746 0.036829501 0 0 0 255
-0.018750284 0.11326555 0.036579508 0 0 0 255
-0.018400658 0.11338536 0.036219526 0 0 0 255
-0.017993754 0.11353345 0.035969533 0 0 0 255
-0.017644124 0.11365325 0.035609554 0 0 0 255
-0.01723722 0.11380135 0.035359561 0 0 0 255
-0.016944867 0.11389286 0.034889597 0 0 0 255
-0.016595706 0.11401249 0.034528751 0 0 0 255
-0.016246419 0.11413322 0.034168772 0 0 0 255
-0.015896793 0.11425303 0.03380879 0 0 0 255
-0.015489889 0.11440112 0.033558797 0 0 0 255
-0.015140258 0.11452092 0.033198819 0 0 0 255
-0.014790632 0.11464073 0.03283884 0 0 0 255
-0.014441002 0.11476053 0.032478858 0 0 0 255
-0.014091371 0.11488034 0.032118879 0 0 0 255
-0.013799019 0.11497184 0.031648912 0 0 0 255
-0.013449389 0.11509164 0.031288933 0 0 0 255
-0.013157506 0.11518297 0.030818105 0 0 0 255
-0.012807874 0.11530277 0.030458126 0 0 0 255
-0.012515519 0.11539427 0.029988158 0 0 0 255
-0.012165893 0.11551408 0.02962818 0 0 0 255
-0.01187354 0.11560559 0.02915821 0 0 0 255
-0.011581186 0.11569709 0.028688246 0 0 0 255
-0.011231557 0.1158169 0.028328268 0 0 0 255
-0.010881927 0.1159367 0.027968289 0 0 0 255
-0.010475023 0.11608479 0.027718296 0 0 0 255
-0.010125391 0.11620459 0.027358316 0 0 0 255
-0.009718487 0.11635269 0.027108323 0 0 0 255
-0.0093115829 0.11650079 0.02685833 0 0 0 255
-0.0089046797 0.11664888 0.026608337 0 0 0 255
-0.0084977755 0.11679698 0.026358344 0 0 0 255
-0.0080908723 0.11694507 0.026108351 0 0 0 255
-0.0077989884 0.1170364 0.025637519 0 0 0 255
-0.0074493634 0.11715621 0.025277536 0 0 0 255
-0.0070997328 0.11727601 0.024917558 0 0 0 255
-0.006750104 0.11739582 0.024557577 0 0 0 255
-0.0064577498 0.11748733 0.02408761 0 0 0 255
-0.0061653974 0.11757883 0.023617651 0 0 0 255
-0.0058162361 0.11769846 0.023256803 0 0 0 255
-0.0054666055 0.11781825 0.022896824 0 0 0 255
-0.0050597005 0.11796635 0.022646829 0 0 0 255
-0.0047100764 0.11808615 0.022286847 0 0 0 255
-0.0043604448 0.11820596 0.021926869 0 0 0 255
-0.0040108152 0.11832576 0.02156689 0 0 0 255
-0.0036611836 0.11844556 0.021206908 0 0 0 255
-0.0033688322 0.11853706 0.020736944 0 0 0 255
-0.0030764788 0.11862857 0.02026698 0 0 0 255
-0.0027845968 0.11871991 0.019796148 0 0 0 255
-0.0024922397 0.11881141 0.01932618 0 0 0 255
-0.0021998864 0.11890293 0.018856216 0 0 0 255
-0.0018502604 0.11902273 0.018496238 0 0 0 255
-0.0015579071 0.11911423 0.01802627 0 0 0 255
-0.0012082774 0.11923403 0.017666291 0 0 0 255
-0.00091592036 0.11932553 0.017196326 0 0 0 255
-0.00056676194 0.11944516 0.016835479 0 0 0 255
-0.00027440675 0.11953666 0.016365513 0 0 0 255
1.7944723e-05 0.11962818 0.015895549 0 0 0 255
0.00031029992 0.11971968 0.01542558 0 0 0 255
0.00060265511 0.11981118 0.014955617 0 0 0 255
0.00083726086 0.11987423 0.014374801 0 0 0 255
0.0010150634 0.11990915 0.013684859 0 0 0 255
0.001192864 0.11994407 0.012994923 0 0 0 255
0.0014274791 0.12000711 0.012414104 0 0 0 255
0.0015476625 0.12001467 0.01161418 0 0 0 255
0.0016677231 0.12002112 0.010813389 0 0 0 255
0.0018455293 0.12005604 0.01012345 0 0 0 255
0.0017937589 0.1199776 0.0089927018 0 0 0 255
0.0019715652 0.12001252 0.008302765 0 0 0 255
0.0020343494 0.11999067 0.0073919892 0 0 0 255
0.0020976048 0.11996899 0.0064820759 0 0 0 255
0.0021603871 0.11994714 0.0055713002 0 0 0 255
0.002280917 0.11995377 0.0047713742 0 0 0 255
0.0019427743 0.11973387 0.0030906964 0 0 0 255
0.0004573781 0.11894849 -0.00079230405 0 0 0 255
0.0007497333 0.11903999 -0.0012622718 0 0 0 255
-0.093063794 0.086839989 0.079472691 0 0 0 255
-0.092083335 0.08727026 0.08032342 0 0 0 255
-0.091102861 0.087700546 0.081174158 0 0 0 255
-0.090294696 0.088045768 0.081694067 0 0 0 255
-0.089658231 0.088307217 0.081884891 0 0 0 255
-0.088964604 0.088595837 0.082184821 0 0 0 255
-0.088270858 0.088885583 0.082485631 0 0 0 255
-0.087692127 0.08911857 0.082565591 0 0 0 255
-0.087170318 0.089322314 0.082535572 0 0 0 255
-0.086591594 0.089555293 0.082615539 0 0 0 255
-0.086069673 0.089760154 0.082586385 0 0 0 255
-0.085605502 0.08993654 0.082446381 0 0 0 255
-0.085084051 0.090141237 0.082416356 0 0 0 255
-0.084619865 0.090317622 0.082276344 0 0 0 255
-0.084212959 0.090465717 0.082026355 0 0 0 255
-0.083806053 0.090613812 0.081776366 0 0 0 255
-0.083456427 0.090733618 0.081416376 0 0 0 255
-0.083106786 0.090853408 0.081056401 0 0 0 255
-0.082757168 0.090973213 0.080696426 0 0 0 255
-0.082350269 0.091121316 0.080446437 0 0 0 255
-0.081943363 0.091269411 0.08019644 0 0 0 255
-0.081479177 0.091445796 0.080056429 0 0 0 255
-0.080957726 0.091650486 0.080026403 0 0 0 255
-0.080321372 0.091910817 0.080216363 0 0 0 255
-0.079351798 0.092328623 0.081041977 0 0 0 255
-0.078672141 0.09260153 0.08130987 0 0 0 255
-0.078101702 0.092825115 0.081370786 0 0 0 255
-0.077640124 0.09299843 0.081224717 0 0 0 255
-0.077124014 0.093195856 0.081181705 0 0 0 255
-0.076607764 0.093394384 0.081139565 0 0 0 255
-0.076146662 0.09356752 0.080992624 0 0 0 255
-0.075685084 0.093740836 0.080846548 0 0 0 255
-0.075278178 0.093888938 0.080596559 0 0 0 255
-0.074816264 0.094061315 0.080450498 0 0 0 255
-0.074409358 0.09420941 0.080200508 0 0 0 255
-0.074057475 0.094333224 0.079846576 0 0 0 255
-0.073595554 0.094505601 0.079700515 0 0 0 255
-0.073298335 0.094604194 0.079242669 0 0 0 255
-0.072891429 0.094752289 0.07899268 0 0 0 255
-0.072538719 0.094875351 0.078639627 0 0 0 255
-0.072186492 0.094998226 0.078285709 0 0 0 255
-0.071998142 0.09504655 0.077620894 0 0 0 255
-0.071809448 0.095093951 0.076956064 0 0 0 255
-0.071566425 0.095167495 0.076395169 0 0 0 255
-0.07148955 0.095162489 0.075517297 0 0 0 255
-0.071369484 0.095168933 0.074716508 0 0 0 255
-0.071306579 0.095148206 0.073806599 0 0 0 255
-0.071301065 0.095098063 0.072785832 0 0 0 255
-0.071754448 0.09482345 0.070885181 0 0 0 255
-0.072150208 0.094576187 0.069094516 0 0 0 255
-0.072661325 0.094273098 0.067083009 0 0 0 255
-0.072713092 0.094194666 0.065952256 0 0 0 255
-0.072592899 0.094202213 0.065152332 0 0 0 255
-0.072357826 0.094265431 0.064572379 0 0 0 255
-0.072180495 0.094300181 0.063881576 0 0 0 255
-0.071945757 0.09436433 0.063301623 0 0 0 255
-0.071767949 0.094399251 0.062611692 0 0 0 255
-0.071418323 0.094519049 0.062251713 0 0 0 255
-0.071126439 0.094610386 0.061780881 0 0 0 255
-0.070776805 0.094730183 0.061420903 0 0 0 255
-0.070427522 0.094850928 0.06106092 0 0 0 255
-0.070020616 0.094999023 0.060810924 0 0 0 255
-0.06961371 0.095147118 0.060560934 0 0 0 255
-0.069264084 0.095266916 0.060200952 0 0 0 255
-0.068857178 0.095415011 0.059950963 0 0 0 255
-0.068507552 0.095534816 0.05959098 0 0 0 255
-0.068100646 0.095682912 0.059340987 0 0 0 255
-0.067751013 0.095802709 0.058981009 0 0 0 255
-0.067344114 0.095950805 0.058731012 0 0 0 255
-0.066994488 0.096070617 0.058371037 0 0 0 255
-0.066644855 0.096190415 0.058011055 0 0 0 255
-0.066237956 0.096338511 0.057761062 0 0 0 255
-0.06583105 0.096486606 0.057511069 0 0 0 255
-0.065424144 0.096634701 0.057261076 0 0 0 255
-0.065017238 0.096782796 0.057011083 0 0 0 255
-0.064610332 0.096930891 0.056761093 0 0 0 255
-0.064260714 0.097050697 0.056401107 0 0 0 255
-0.063853808 0.097198799 0.056151114 0 0 0 255
-0.063446902 0.097346894 0.055901118 0 0 0 255
-0.063097276 0.097466685 0.055541143 0 0 0 255
-0.06269037 0.09761478 0.055291153 0 0 0 255
-0.062283464 0.097762875 0.055041157 0 0 0 255
-0.061876558 0.09791097 0.054791164 0 0 0 255
-0.061469659 0.098059066 0.054541171 0 0 0 255
-0.061062753 0.098207161 0.054291178 0 0 0 255
-0.060598575 0.098383568 0.05415117 0 0 0 255
-0.060248941 0.098503359 0.053791191 0 0 0 255
-0.059842043 0.098651454 0.053541198 0 0 0 255
-0.059435137 0.098799549 0.053291202 0 0 0 255
-0.059028231 0.098947644 0.053041212 0 0 0 255
-0.058621332 0.099095739 0.052791219 0 0 0 255
-0.058214426 0.099243835 0.052541226 0 0 0 255
-0.05780752 0.099391937 0.052291229 0 0 0 255
-0.057343341 0.099568337 0.052151218 0 0 0 255
-0.056993715 0.099688128 0.051791243 0 0 0 255
-0.056586809 0.099836223 0.05154125 0 0 0 255
-0.056179903 0.099984318 0.051291257 0 0 0 255
-0.055772997 0.10013241 0.051041268 0 0 0 255
-0.055366099 0.10028051 0.050791271 0 0 0 255
-0.055016465 0.10040032 0.050431293 0 0 0 255
-0.054609559 0.10054842 0.050181299 0 0 0 255
-0.054260403 0.10066805 0.049820453 0 0 0 255
-0.053853497 0.10081615 0.04957046 0 0 0 255
-0.053503864 0.10093594 0.049210481 0 0 0 255
-0.05315458 0.10105668 0.048850499 0 0 0 255
-0.052862227 0.10114818 0.048380535 0 0 0 255
-0.052455321 0.10129628 0.048130542 0 0 0 255
-0.052105695 0.1014161 0.047770564 0 0 0 255
-0.051641516 0.10159247 0.047630556 0 0 0 255
-0.05123461 0.10174057 0.047380563 0 0 0 255
-0.050827704 0.10188866 0.04713057 0 0 0 255
-0.050420802 0.10203676 0.046880573 0 0 0 255
-0.049956627 0.10221315 0.046740569 0 0 0 255
-0.049549721 0.10236125 0.046490572 0 0 0 255
-0.04902792 0.102565 0.046460554 0 0 0 255
-0.048621017 0.10271309 0.046210557 0 0 0 255
-0.048156843 0.10288949 0.046070553 0 0 0 255
-0.047749937 0.10303759 0.04582056 0 0 0 255
-0.047285289 0.10321414 0.045681421 0 0 0 255
-0.04682111 0.10339053 0.045541413 0 0 0 255
-0.046356939 0.10356693 0.045401402 0 0 0 255
-0.045950033 0.10371503 0.045151409 0 0 0 255
-0.04548585 0.10389142 0.045011405 0 0 0 255
-0.045078944 0.10403951 0.044761412 0 0 0 255
-0.04461477 0.10421591 0.044621404 0 0 0 255
-0.044207864 0.104364 0.044371411 0 0 0 255
-0.043743685 0.10454039 0.044231404 0 0 0 255
-0.043279506 0.10471678 0.044091396 0 0 0 255
-0.042815324 0.10489316 0.043951388 0 0 0 255
-0.042293526 0.10509692 0.04392137 0 0 0 255
-0.041771606 0.10530178 0.043892216 0 0 0 255
-0.041250154 0.10550646 0.043862194 0 0 0 255
-0.040614147 0.10576773 0.044052143 0 0 0 255
-0.040092353 0.10597149 0.044022124 0 0 0 255
-0.039570428 0.10617633 0.043992966 0 0 0 255
-0.03904897 0.10638102 0.043962948 0 0 0 255
-0.038527519 0.10658572 0.043932922 0 0 0 255
-0.03806334 0.10676211 0.043792918 0 0 0 255
-0.037599161 0.10693849 0.043652911 0 0 0 255
-0.037192255 0.10708658 0.043402918 0 0 0 255
-0.036670804 0.10729127 0.043372896 0 0 0 255
-0.036206283 0.10746673 0.043232892 0 0 0 255
-0.035742104 0.10764312 0.043092884 0 0 0 255
-0.035277925 0.10781952 0.042952877 0 0 0 255
-0.034813274 0.10799608 0.042813737 0 0 0 255
-0.034406371 0.10814417 0.042563744 0 0 0 255
-0.033999465 0.10829227 0.042313751 0 0 0 255
-0.03347801 0.10849695 0.042283729 0 0 0 255
-0.033013836 0.10867335 0.042143721 0 0 0 255
-0.032549657 0.10884973 0.042003714 0 0 0 255
-0.032028198 0.10905442 0.041973695 0 0 0 255
-0.031564023 0.10923082 0.041833684 0 0 0 255
-0.031099502 0.10940626 0.04169368 0 0 0 255
-0.03063532 0.10958266 0.041553672 0 0 0 255
-0.030171143 0.10975904 0.041413661 0 0 0 255
-0.029706495 0.1099356 0.041274521 0 0 0 255
-0.029242314 0.110112 0.041134514 0 0 0 255
-0.028778136 0.11028839 0.040994506 0 0 0 255
-0.028313955 0.11046478 0.040854502 0 0 0 255
-0.027907051 0.11061288 0.040604509 0 0 0 255
-0.027442874 0.11078927 0.040464502 0 0 0 255
-0.026978698 0.11096565 0.040324494 0 0 0 255
-0.026571793 0.11111375 0.040074501 0 0 0 255
-0.026107613 0.11129014 0.039934497 0 0 0 255
-0.025757985 0.11140994 0.039574515 0 0 0 255
-0.025351081 0.11155804 0.039324518 0 0 0 255
-0.024944179 0.11170614 0.039074525 0 0 0 255
-0.024537273 0.11185423 0.038824532 0 0 0 255
-0.02413037 0.11200233 0.038574539 0 0 0 255
-0.023666188 0.11217872 0.038434535 0 0 0 255
-0.023202009 0.11235511 0.038294528 0 0 0 255
-0.02273749 0.11253057 0.03815452 0 0 0 255
-0.022330586 0.11267866 0.037904527 0 0 0 255
-0.021866402 0.11285506 0.037764519 0 0 0 255
-0.021402225 0.11303145 0.037624512 0 0 0 255
-0.020995321 0.11317954 0.037374519 0 0 0 255
-0.020588417 0.11332764 0.037124526 0 0 0 255
-0.02012424 0.11350402 0.036984518 0 0 0 255
-0.019717336 0.11365212 0.036734525 0 0 0 255
-0.019367704 0.11377192 0.036374547 0 0 0 255
-0.018960802 0.11392003 0.03612455 0 0 0 255
-0.01861117 0.11403983 0.035764571 0 0 0 255
-0.018204266 0.11418793 0.035514578 0 0 0 255
-0.017854642 0.11430772 0.0351546 0 0 0 255
-0.017505353 0.11442846 0.034794621 0 0 0 255
-0.017155726 0.11454826 0.034434643 0 0 0 255
-0.016748821 0.11469635 0.03418465 0 0 0 255
-0.016399194 0.11481616 0.033824667 0 0 0 255
-0.016049562 0.11493596 0.033464689 0 0 0 255
-0.01569993 0.11505576 0.03310471 0 0 0 255
-0.015350305 0.11517557 0.032744728 0 0 0 255
-0.014943401 0.11532366 0.032494735 0 0 0 255
-0.014651048 0.11541516 0.032024771 0 0 0 255
-0.014301888 0.11553479 0.031663924 0 0 0 255
-0.014009535 0.1156263 0.031193962 0 0 0 255
-0.013660248 0.11574705 0.03083398 0 0 0 255
-0.013367895 0.11583855 0.030364016 0 0 0 255
-0.013018265 0.11595835 0.030004032 0 0 0 255
-0.012725908 0.11604986 0.029534068 0 0 0 255
-0.012376282 0.11616966 0.029174086 0 0 0 255
-0.012084398 0.116261 0.028703257 0 0 0 255
-0.011734769 0.1163808 0.028343279 0 0 0 255
-0.011385138 0.11650061 0.0279833 0 0 0 255
-0.011035851 0.11662134 0.027623318 0 0 0 255
-0.010686226 0.11674114 0.02726334 0 0 0 255
-0.010279322 0.11688924 0.027013347 0 0 0 255
-0.0099296905 0.11700903 0.026653368 0 0 0 255
-0.0095227864 0.11715712 0.026403373 0 0 0 255
-0.0091158822 0.11730522 0.02615338 0 0 0 255
-0.0087089781 0.11745332 0.025903387 0 0 0 255
-0.0084166247 0.11754484 0.025433419 0 0 0 255
-0.0080669951 0.11766464 0.025073439 0 0 0 255
-0.0076600919 0.11781273 0.024823446 0 0 0 255
-0.0073104603 0.11793253 0.024463467 0 0 0 255
-0.0070181089 0.11802403 0.023993503 0 0 0 255
-0.0066689523 0.11814367 0.023632657 0 0 0 255
-0.006376937 0.11823611 0.023162693 0 0 0 255
-0.0060273083 0.11835591 0.022802711 0 0 0 255
-0.0056204051 0.11850401 0.022552717 0 0 0 255
-0.0052707773 0.11862382 0.022192739 0 0 0 255
-0.0049211457 0.11874361 0.02183276 0 0 0 255
-0.0045715217 0.11886342 0.021472778 0 0 0 255
-0.0042791627 0.11895492 0.021002816 0 0 0 255
-0.0040445551 0.11901796 0.020422 0 0 0 255
-0.0037525408 0.11911041 0.019952031 0 0 0 255
-0.0034601893 0.11920191 0.019482065 0 0 0 255
-0.0031105597 0.11932172 0.019122086 0 0 0 255
-0.0027609318 0.11944152 0.018762108 0 0 0 255
-0.002411304 0.11956132 0.018402124 0 0 0 255
-0.0021189488 0.11965282 0.017932162 0 0 0 255
-0.0018270612 0.11974415 0.01746133 0 0 0 255
-0.0015350524 0.1198366 0.016991362 0 0 0 255
-0.0011854209 0.1199564 0.016631385 0 0 0 255
-0.00089306943 0.12004791 0.016161416 0 0 0 255
-0.0006007161 0.12013942 0.015691454 0 0 0 255
-0.00025109015 0.12025922 0.015331472 0 0 0 255
-1.6476959e-05 0.12032226 0.014750655 0 0 0 255
0.00027553365 0.1204147 0.014280688 0 0 0 255
0.00045333803 0.12044962 0.013590751 0 0 0 255
0.00068841875 0.12051284 0.013010797 0 0 0 255
0.00086540729 0.12054852 0.012319997 0 0 0 255
0.0010432117 0.12058343 0.011630057 0 0 0 255
0.0011632703 0.12058989 0.010829267 0 0 0 255
0.0012261849 0.12056915 0.0099193547 0 0 0 255
0.0012313519 0.12051994 0.0088985935 0 0 0 255
0.001351878 0.12052657 0.0080986675 0 0 0 255
0.0014143232 0.12050568 0.0071878936 0 0 0 255
0.0014202986 0.1204557 0.0061679929 0 0 0 255
0.0014827419 0.1204348 0.0052572191 0 0 0 255
0.0015459936 0.12041312 0.0043473095 0 0 0 255
0.0012644492 0.12022338 0.0027766135 0 0 0 255
-0.00033571012 0.11938347 -0.0013254955 0 0 0 255
-0.093686722 0.087396502 0.080288485 0 0 0 255
-0.09299311 0.087685138 0.08058843 0 0 0 255
-0.092012301 0.08811447 0.081439167 0 0 0 255
-0.091146387 0.088488162 0.082069919 0 0 0 255
-0.090510041 0.088748492 0.082259879 0 0 0 255
-0.089815944 0.089037292 0.082560681 0 0 0 255
-0.089179933 0.089298569 0.082750633 0 0 0 255
-0.088543594 0.089558914 0.082940578 0 0 0 255
-0.087964401 0.089792058 0.08302141 0 0 0 255
-0.087442607 0.089995801 0.082991391 0 0 0 255
-0.086863875 0.090228796 0.083071366 0 0 0 255
-0.086284801 0.090460829 0.083151326 0 0 0 255
-0.085762873 0.090665683 0.083122164 0 0 0 255
-0.085241079 0.090869427 0.083092146 0 0 0 255
-0.084776893 0.091045827 0.082952142 0 0 0 255
-0.084369995 0.091193929 0.082702145 0 0 0 255
-0.083963089 0.091342017 0.082452163 0 0 0 255
-0.08361347 0.091461807 0.082092173 0 0 0 255
-0.08326418 0.091582559 0.081732199 0 0 0 255
-0.082914546 0.091702357 0.081372216 0 0 0 255
-0.082565382 0.091821991 0.08101137 0 0 0 255
-0.082215756 0.091941789 0.080651388 0 0 0 255
-0.08175157 0.092118189 0.080511376 0 0 0 255
-0.081057489 0.092406981 0.080812186 0 0 0 255
-0.080147922 0.092792302 0.081520893 0 0 0 255
-0.079468265 0.093065217 0.081788786 0 0 0 255
-0.078897476 0.093287855 0.081849702 0 0 0 255
-0.07832703 0.093511432 0.08191061 0 0 0 255
-0.077810444 0.093709022 0.08186847 0 0 0 255
-0.077348873 0.093882337 0.081722394 0 0 0 255
-0.076832749 0.094079763 0.081679389 0 0 0 255
-0.076316983 0.094278127 0.081636377 0 0 0 255
-0.075910076 0.094426222 0.08138638 0 0 0 255
-0.075393833 0.09462475 0.081344239 0 0 0 255
-0.074986927 0.094772846 0.08109425 0 0 0 255
-0.074580021 0.094920941 0.080844253 0 0 0 255
-0.074173115 0.095069036 0.080594257 0 0 0 255
-0.073766209 0.095217139 0.08034426 0 0 0 255
-0.073359311 0.095365226 0.080094278 0 0 0 255
-0.073007077 0.095488116 0.079740353 0 0 0 255
-0.072654843 0.095610991 0.079386435 0 0 0 255
-0.072247937 0.095759086 0.079136446 0 0 0 255
-0.072004914 0.095832646 0.078575544 0 0 0 255
-0.071706884 0.095930465 0.078118563 0 0 0 255
-0.071518533 0.095978796 0.077453747 0 0 0 255
-0.07133019 0.096027136 0.076788917 0 0 0 255
-0.071196035 0.096050411 0.076021045 0 0 0 255
-0.071062356 0.096073538 0.075252295 0 0 0 255
-0.070999444 0.096052796 0.074342385 0 0 0 255
-0.070822448 0.096088484 0.073651582 0 0 0 255
-0.071218893 0.095843099 0.071860909 0 0 0 255
-0.071385548 0.095709011 0.070510194 0 0 0 255
-0.071609817 0.095547572 0.069049478 0 0 0 255
-0.071776353 0.095414594 0.067699626 0 0 0 255
-0.07228782 0.095112458 0.065688126 0 0 0 255
-0.07228218 0.095063426 0.064668223 0 0 0 255
-0.072047099 0.095126636 0.064088278 0 0 0 255
-0.071927384 0.095134027 0.063287482 0 0 0 255
-0.071692646 0.095198177 0.062707528 0 0 0 255
-0.071400292 0.095289692 0.062237568 0 0 0 255
-0.071050659 0.095409483 0.061877586 0 0 0 255
-0.070759118 0.095501773 0.061406754 0 0 0 255
-0.070352226 0.095649868 0.061156765 0 0 0 255
-0.070002586 0.095769659 0.060796782 0 0 0 255
-0.06959568 0.095917754 0.060546789 0 0 0 255
-0.069246054 0.096037559 0.060186811 0 0 0 255
-0.068896428 0.096157357 0.059826829 0 0 0 255
-0.068546802 0.096277148 0.059466854 0 0 0 255
-0.068197168 0.096396968 0.059106871 0 0 0 255
-0.067847885 0.096517712 0.058746889 0 0 0 255
-0.067498252 0.096637502 0.058386911 0 0 0 255
-0.067148626 0.096757308 0.058026932 0 0 0 255
-0.066798992 0.096877106 0.05766695 0 0 0 255
-0.066449374 0.096996903 0.057306975 0 0 0 255
-0.066042468 0.097145006 0.057056978 0 0 0 255
-0.065692827 0.097264811 0.056697 0 0 0 255
-0.065285929 0.097412907 0.056447007 0 0 0 255
-0.064937115 0.097533472 0.05608616 0 0 0 255
-0.064530209 0.097681567 0.055836167 0 0 0 255
-0.064123303 0.097829662 0.055586174 0 0 0 255
-0.063773677 0.09794946 0.055226196 0 0 0 255
-0.063366771 0.098097555 0.054976203 0 0 0 255
-0.062902592 0.098273948 0.054836191 0 0 0 255
-0.062495686 0.09842205 0.054586202 0 0 0 255
-0.062146064 0.098541848 0.054226223 0 0 0 255
-0.061739158 0.098689944 0.05397623 0 0 0 255
-0.061332252 0.098838039 0.053726234 0 0 0 255
-0.060982626 0.098957844 0.053366255 0 0 0 255
-0.060575724 0.099105939 0.053116262 0 0 0 255
-0.06022609 0.09922573 0.052756283 0 0 0 255
-0.059761912 0.099402137 0.052616276 0 0 0 255
-0.059355009 0.099550232 0.052366287 0 0 0 255
-0.058890831 0.099726617 0.052226275 0 0 0 255
-0.058483925 0.099874713 0.051976282 0 0 0 255
-0.058077019 0.10002281 0.051726289 0 0 0 255
-0.05767012 0.1001709 0.051476296 0 0 0 255
-0.057263214 0.100319 0.051226303 0 0 0 255
-0.056856308 0.1004671 0.050976306 0 0 0 255
-0.056449406 0.1006152 0.050726317 0 0 0 255
-0.056042504 0.10076329 0.05047632 0 0 0 255
-0.055635598 0.10091139 0.050226331 0 0 0 255
-0.055285968 0.10103119 0.049866349 0 0 0 255
-0.054879066 0.10117929 0.049616359 0 0 0 255
-0.054529436 0.10129908 0.049256377 0 0 0 255
-0.05412253 0.10144718 0.04900638 0 0 0 255
-0.053772904 0.10156699 0.048646405 0 0 0 255
-0.053480893 0.10165943 0.048176438 0 0 0 255
-0.05313126 0.10177923 0.047816459 0 0 0 255
-0.05278163 0.10189904 0.047456481 0 0 0 255
-0.052374728 0.10204713 0.047206484 0 0 0 255
-0.051910549 0.10222352 0.04706648 0 0 0 255
-0.05156092 0.10234332 0.046706501 0 0 0 255
-0.051096741 0.10251971 0.046566494 0 0 0 255
-0.050632566 0.10269611 0.046426482 0 0 0 255
-0.05016838 0.1028725 0.046286479 0 0 0 255
-0.049761478 0.10302059 0.046036486 0 0 0 255
-0.04929696 0.10319605 0.045896478 0 0 0 255
-0.048832782 0.10337242 0.04575647 0 0 0 255
-0.048368603 0.10354882 0.045616463 0 0 0 255
-0.047961697 0.10369693 0.04536647 0 0 0 255
-0.047497518 0.10387331 0.045226462 0 0 0 255
-0.04703334 0.1040497 0.045086455 0 0 0 255
-0.046626434 0.1041978 0.044836462 0 0 0 255
-0.046219531 0.1043459 0.044586468 0 0 0 255
-0.045754537 0.10452152 0.044447329 0 0 0 255
-0.045347631 0.10466962 0.044197336 0 0 0 255
-0.044883456 0.104846 0.044057328 0 0 0 255
-0.044476554 0.1049941 0.043807335 0 0 0 255
-0.044012375 0.1051705 0.043667328 0 0 0 255
-0.043605469 0.10531859 0.043417335 0 0 0 255
-0.043141291 0.10549498 0.043277327 0 0 0 255
-0.042677112 0.10567137 0.043137319 0 0 0 255
-0.042098038 0.1059034 0.043217286 0 0 0 255
-0.04151931 0.10613639 0.04329725 0 0 0 255
-0.040939771 0.1063686 0.043378081 0 0 0 255
-0.040361039 0.10660159 0.043458045 0 0 0 255
-0.039781969 0.10683363 0.043538012 0 0 0 255
-0.039260514 0.10703831 0.043507993 0 0 0 255
-0.038796343 0.10721471 0.043367986 0 0 0 255
-0.038332157 0.10739109 0.043227978 0 0 0 255
-0.037867166 0.10756671 0.043088838 0 0 0 255
-0.037345711 0.10777141 0.043058816 0 0 0 255
-0.036881536 0.1079478 0.042918809 0 0 0 255
-0.036417358 0.10812419 0.042778797 0 0 0 255
-0.035952833 0.10829964 0.042638794 0 0 0 255
-0.035488654 0.10847604 0.042498786 0 0 0 255
-0.035081752 0.10862413 0.042248793 0 0 0 255
-0.034617573 0.10880052 0.042108789 0 0 0 255
-0.034153394 0.10897692 0.041968778 0 0 0 255
-0.033689216 0.1091533 0.041828774 0 0 0 255
-0.033225037 0.10932969 0.041688766 0 0 0 255
-0.032760512 0.10950514 0.041548755 0 0 0 255
-0.032295864 0.10968171 0.041409615 0 0 0 255
-0.031831685 0.1098581 0.041269608 0 0 0 255
-0.03131023 0.11006278 0.041239589 0 0 0 255
-0.030846056 0.11023917 0.041099582 0 0 0 255
-0.030381532 0.11041463 0.040959578 0 0 0 255
-0.029860079 0.11061931 0.040929556 0 0 0 255
-0.029395899 0.11079571 0.040789548 0 0 0 255
-0.028988995 0.1109438 0.040539555 0 0 0 255
-0.028524814 0.11112019 0.040399544 0 0 0 255
-0.028060637 0.11129658 0.040259536 0 0 0 255
-0.027596116 0.11147203 0.040119529 0 0 0 255
-0.027189212 0.11162014 0.039869536 0 0 0 255
-0.026724562 0.11179669 0.039730396 0 0 0 255
-0.026317658 0.11194479 0.039480403 0 0 0 255
-0.025910754 0.11209288 0.03923041 0 0 0 255
-0.02550385 0.11224098 0.038980417 0 0 0 255
-0.025096945 0.11238907 0.038730424 0 0 0 255
-0.024690041 0.11253717 0.038480431 0 0 0 255
-0.024283137 0.11268526 0.038230438 0 0 0 255
-0.02381943 0.11286149 0.038089566 0 0 0 255
-0.023354778 0.11303805 0.037950426 0 0 0 255
-0.022890599 0.11321444 0.037810419 0 0 0 255
-0.022483695 0.11336254 0.037560426 0 0 0 255
-0.02201952 0.11353893 0.037420414 0 0 0 255
-0.021554999 0.11371438 0.037280411 0 0 0 255
-0.021148095 0.11386248 0.037030417 0 0 0 255
-0.020741191 0.11401058 0.036780424 0 0 0 255
-0.020334287 0.11415868 0.036530431 0 0 0 255
-0.019927382 0.11430677 0.036280438 0 0 0 255
-0.019578096 0.11442751 0.035920456 0 0 0 255
-0.019171191 0.1145756 0.035670463 0 0 0 255
-0.01882156 0.1146954 0.035310484 0 0 0 255
-0.01847193 0.1148152 0.034950506 0 0 0 255
-0.018122774 0.11493484 0.034589659 0 0 0 255
-0.017715871 0.11508293 0.034339666 0 0 0 255
-0.017308965 0.11523103 0.034089673 0 0 0 255
-0.016958866 0.115351 0.033730559 0 0 0 255
-0.01660971 0.11547063 0.033369709 0 0 0 255
-0.016202806 0.11561873 0.033119716 0 0 0 255
-0.015853519 0.11573946 0.032759737 0 0 0 255
-0.015503887 0.11585927 0.032399759 0 0 0 255
-0.015154259 0.11597908 0.03203978 0 0 0 255
-0.014804631 0.11609887 0.031679802 0 0 0 255
-0.014512276 0.11619038 0.031209838 0 0 0 255
-0.014162992 0.11631112 0.030849855 0 0 0 255
-0.013870636 0.11640263 0.030379891 0 0 0 255
-0.013521006 0.11652242 0.030019909 0 0 0 255
-0.013229122 0.11661375 0.029549077 0 0 0 255
-0.012879837 0.1167345 0.029189102 0 0 0 255
-0.012530208 0.1168543 0.028829122 0 0 0 255
-0.012237854 0.11694581 0.028359154 0 0 0 255
-0.011888223 0.11706562 0.027999176 0 0 0 255
-0.011596214 0.11715806 0.027529208 0 0 0 255
-0.01118931 0.11730615 0.027279215 0 0 0 255
-0.010839678 0.11742595 0.026919235 0 0 0 255
-0.010547323 0.11751746 0.026449267 0 0 0 255
-0.010140419 0.11766556 0.026199274 0 0 0 255
-0.0097335158 0.11781365 0.025949281 0 0 0 255
-0.009383888 0.11793345 0.025589306 0 0 0 255
-0.0090350714 0.11805402 0.025228459 0 0 0 255
-0.0086281672 0.11820211 0.024978466 0 0 0 255
-0.0082212621 0.11835021 0.024728473 0 0 0 255
-0.0078716371 0.11847003 0.024368495 0 0 0 255
-0.0075220047 0.11858982 0.024008514 0 0 0 255
-0.0072296504 0.11868133 0.023538547 0 0 0 255
-0.0068227472 0.11882942 0.023288555 0 0 0 255
-0.0065307338 0.11892188 0.02281859 0 0 0 255
-0.0061811069 0.11904167 0.022458607 0 0 0 255
-0.0057742018 0.11918976 0.022208612 0 0 0 255
-0.0054818485 0.11928127 0.021738652 0 0 0 255
-0.005132217 0.11940107 0.02137867 0 0 0 255
-0.0048406795 0.11949336 0.020907838 0 0 0 255
-0.0046055987 0.11955656 0.020327885 0 0 0 255
-0.0043708645 0.11962072 0.019747933 0 0 0 255
-0.0040212329 0.11974051 0.019387953 0 0 0 255
-0.0036716051 0.11986031 0.019027974 0 0 0 255
-0.0033219755 0.11998011 0.018667998 0 0 0 255
-0.0030296184 0.12007163 0.018198032 0 0 0 255
-0.0027380809 0.1201639 0.0177272 0 0 0 255
-0.0024457257 0.1202554 0.017257232 0 0 0 255
-0.0020960979 0.12037521 0.016897254 0 0 0 255
-0.0018040854 0.12046765 0.016427286 0 0 0 255
-0.0015117303 0.12055916 0.015957324 0 0 0 255
-0.0011620987 0.12067895 0.015597341 0 0 0 255
-0.00087008998 0.12077139 0.015127377 0 0 0 255
-0.00063548051 0.12083444 0.01454656 0 0 0 255
-0.00034312718 0.12092596 0.014076592 0 0 0 255
-0.00016566366 0.1209618 0.013386657 0 0 0 255
0.00012668781 0.12105332 0.01291669 0 0 0 255
0.0002464056 0.1210607 0.012115899 0 0 0 255
0.00036659278 0.12106826 0.011315974 0 0 0 255
0.00060132705 0.12113241 0.010736021 0 0 0 255
0.00049195066 0.12102663 0.0094952863 0 0 0 255
0.00066894293 0.12106231 0.0088044833 0 0 0 255
0.00073185191 0.12104157 0.0078945719 0 0 0 255
0.00067974254 0.12096407 0.0067638233 0 0 0 255
0.00074265338 0.12094334 0.0058539137 0 0 0 255
0.00086237118 0.12095073 0.0050531216 0 0 0 255
0.00081039034 0.12087435 0.003923241 0 0 0 255
-0.00010233745 0.12037508 0.0011418294 0 0 0 255
-0.095055729 0.087587833 0.079673603 0 0 0 255
-0.093902752 0.088101111 0.080854297 0 0 0 255
-0.093438238 0.088276558 0.080714285 0 0 0 255
-0.092112616 0.08887396 0.082225807 0 0 0 255
-0.091361724 0.089190885 0.082635731 0 0 0 255
-0.09072537 0.089451224 0.082825676 0 0 0 255
-0.090088561 0.089711733 0.0830165 0 0 0 255
-0.089452222 0.089972064 0.08320646 0 0 0 255
-0.088815868 0.090232402 0.083396405 0 0 0 255
-0.088294074 0.090436153 0.083366379 0 0 0 255
-0.087657258 0.090696655 0.083557203 0 0 0 255
-0.087078184 0.090928696 0.083637163 0 0 0 255
-0.086556725 0.091133386 0.083607145 0 0 0 255
-0.086034939 0.091337129 0.083577126 0 0 0 255
-0.085570768 0.091513529 0.083437115 0 0 0 255
-0.085048839 0.091718383 0.083407968 0 0 0 255
-0.084584787 0.091893658 0.083267093 0 0 0 255
-0.084177881 0.092041753 0.083017096 0 0 0 255
-0.083828121 0.092162669 0.082657985 0 0 0 255
-0.083421215 0.092310764 0.082407989 0 0 0 255
-0.083072051 0.092430398 0.082047142 0 0 0 255
-0.082722433 0.092550203 0.081687167 0 0 0 255
-0.082315534 0.092698291 0.081437171 0 0 0 255
-0.081851348 0.092874683 0.081297167 0 0 0 255
-0.080999054 0.093231708 0.08189588 0 0 0 255
-0.08037325 0.093478628 0.082060724 0 0 0 255
-0.079747796 0.093726486 0.082225554 0 0 0 255
-0.079232022 0.09392485 0.082182541 0 0 0 255
-0.078661233 0.094147488 0.082243457 0 0 0 255
-0.078144647 0.094345093 0.082201317 0 0 0 255
-0.077573866 0.094567724 0.082262218 0 0 0 255
-0.077057749 0.094765142 0.082219213 0 0 0 255
-0.076541968 0.094963513 0.082176208 0 0 0 255
-0.076135062 0.095111609 0.081926212 0 0 0 255
-0.075673148 0.095283985 0.081780136 0 0 0 255
-0.075266242 0.095432073 0.081530139 0 0 0 255
-0.074859343 0.095580176 0.081280157 0 0 0 255
-0.074397773 0.095753491 0.081134081 0 0 0 255
-0.073990867 0.095901586 0.080884084 0 0 0 255
-0.073583961 0.096049681 0.080634095 0 0 0 255
-0.073177055 0.096197776 0.080384105 0 0 0 255
-0.072770149 0.096345872 0.080134109 0 0 0 255
-0.072417915 0.096468747 0.079780191 0 0 0 255
-0.072120234 0.096567526 0.079323217 0 0 0 255
-0.071767993 0.096690387 0.0789693 0 0 0 255
-0.071524978 0.096763954 0.078408405 0 0 0 255
-0.071281955 0.096837498 0.077847503 0 0 0 255
-0.071038932 0.09691105 0.077286601 0 0 0 255
-0.070905589 0.096935108 0.07651785 0 0 0 255
-0.070826456 0.09693411 0.075646043 0 0 0 255
-0.070807189 0.096901745 0.0746582 0 0 0 255
-0.070572585 0.096964791 0.074077383 0 0 0 255
-0.070624568 0.096888401 0.072947502 0 0 0 255
-0.070964076 0.096672252 0.071266815 0 0 0 255
-0.071360514 0.096426867 0.069476143 0 0 0 255
-0.071355686 0.096378602 0.068455383 0 0 0 255
-0.071752474 0.096134156 0.066664726 0 0 0 255
-0.071976751 0.095972717 0.065204009 0 0 0 255
-0.071914181 0.095952928 0.0642941 0 0 0 255
-0.071794465 0.095960312 0.063493311 0 0 0 255
-0.071502462 0.096052766 0.063023344 0 0 0 255
-0.071210101 0.096144274 0.062553376 0 0 0 255
-0.070918083 0.096236721 0.062083416 0 0 0 255
-0.070568457 0.096356511 0.061723433 0 0 0 255
-0.070276111 0.096448019 0.061253473 0 0 0 255
-0.06992729 0.096568584 0.060892627 0 0 0 255
-0.069577657 0.096688397 0.060532644 0 0 0 255
-0.069170758 0.096836492 0.060282655 0 0 0 255
-0.068878405 0.096927993 0.059812687 0 0 0 255
-0.068529114 0.097048737 0.059452705 0 0 0 255
-0.068236761 0.097140238 0.058982737 0 0 0 255
-0.06794475 0.097232684 0.058512777 0 0 0 255
-0.067652397 0.097324193 0.058042809 0 0 0 255
-0.067360848 0.097416475 0.057571977 0 0 0 255
-0.067011222 0.097536281 0.057211995 0 0 0 255
-0.066718876 0.097627781 0.056742035 0 0 0 255
-0.06631197 0.097775877 0.056492038 0 0 0 255
-0.065962672 0.097896606 0.05613206 0 0 0 255
-0.065555766 0.098044701 0.055882066 0 0 0 255
-0.065206148 0.098164506 0.055522084 0 0 0 255
-0.064799242 0.098312609 0.055272091 0 0 0 255
-0.064392336 0.098460704 0.055022098 0 0 0 255
-0.063985437 0.098608799 0.054772105 0 0 0 255
-0.063578531 0.098756894 0.054522112 0 0 0 255
-0.063171625 0.09890499 0.054272115 0 0 0 255
-0.062821999 0.099024795 0.05391214 0 0 0 255
-0.062415093 0.09917289 0.053662144 0 0 0 255
-0.062065464 0.099292696 0.053302169 0 0 0 255
-0.061773449 0.099385142 0.052832201 0 0 0 255
-0.061366547 0.099533238 0.052582208 0 0 0 255
-0.060959645 0.099681333 0.052332215 0 0 0 255
-0.060495466 0.099857725 0.052192204 0 0 0 255
-0.060030941 0.10003317 0.0520522 0 0 0 255
-0.059624042 0.10018127 0.051802211 0 0 0 255
-0.059217136 0.10032937 0.051552214 0 0 0 255
-0.05881023 0.10047746 0.051302221 0 0 0 255
-0.058403328 0.10062556 0.051052228 0 0 0 255
-0.057939149 0.10080195 0.05091222 0 0 0 255
-0.057532243 0.10095005 0.050662227 0 0 0 255
-0.057125337 0.10109814 0.05041223 0 0 0 255
-0.056718435 0.10124624 0.050162241 0 0 0 255
-0.056311533 0.10139433 0.049912244 0 0 0 255
-0.055904627 0.10154244 0.049662255 0 0 0 255
-0.055497721 0.10169053 0.049412258 0 0 0 255
-0.055148099 0.10181033 0.049052283 0 0 0 255
-0.054798812 0.10193107 0.048692301 0 0 0 255
-0.054449178 0.10205087 0.048332319 0 0 0 255
-0.054156825 0.10214238 0.047862358 0 0 0 255
-0.053808011 0.10226294 0.047501512 0 0 0 255
-0.053458378 0.10238275 0.047141533 0 0 0 255
-0.053051472 0.10253084 0.04689154 0 0 0 255
-0.052644573 0.10267894 0.046641547 0 0 0 255
-0.052237667 0.10282703 0.046391554 0 0 0 255
-0.051830761 0.10297513 0.046141557 0 0 0 255
-0.051366583 0.10315152 0.04600155 0 0 0 255
-0.050901596 0.10332715 0.045862414 0 0 0 255
-0.050494693 0.10347524 0.045612417 0 0 0 255
-0.049973235 0.10367993 0.045582395 0 0 0 255
-0.049509056 0.10385633 0.045442387 0 0 0 255
-0.049102157 0.10400442 0.045192394 0 0 0 255
-0.048637632 0.10417987 0.045052387 0 0 0 255
-0.04823073 0.10432796 0.044802394 0 0 0 255
-0.047766548 0.10450435 0.044662386 0 0 0 255
-0.047302373 0.10468074 0.044522379 0 0 0 255
-0.046895467 0.10482883 0.044272386 0 0 0 255
-0.046488564 0.10497694 0.044022392 0 0 0 255
-0.046081658 0.10512503 0.043772399 0 0 0 255
-0.045674756 0.10527313 0.043522406 0 0 0 255
-0.04521057 0.10544951 0.043382399 0 0 0 255
-0.044860948 0.10556932 0.04302242 0 0 0 255
-0.044454046 0.10571741 0.042772427 0 0 0 255
-0.043932248 0.10592116 0.042742409 0 0 0 255
-0.043468066 0.10609756 0.042602398 0 0 0 255
-0.042946611 0.10630225 0.042572379 0 0 0 255
-0.042367075 0.10653446 0.04265321 0 0 0 255
-0.041788004 0.10676649 0.042733174 0 0 0 255
-0.04120893 0.10699853 0.042813141 0 0 0 255
-0.040630199 0.10723151 0.042893104 0 0 0 255
-0.040050663 0.10746372 0.042973936 0 0 0 255
-0.039586481 0.10764013 0.042833928 0 0 0 255
-0.039064683 0.10784388 0.042803906 0 0 0 255
-0.038600504 0.10802026 0.042663902 0 0 0 255
-0.03807871 0.10822401 0.04263388 0 0 0 255
-0.037614532 0.10840039 0.042493872 0 0 0 255
-0.037150353 0.10857678 0.042353868 0 0 0 255
-0.036686175 0.10875318 0.042213861 0 0 0 255
-0.036163904 0.1089571 0.042184703 0 0 0 255
-0.035699729 0.1091335 0.042044695 0 0 0 255
-0.035292823 0.10928159 0.041794702 0 0 0 255
-0.034828644 0.10945797 0.041654699 0 0 0 255
-0.034364123 0.10963343 0.041514691 0 0 0 255
-0.033899944 0.10980982 0.041374683 0 0 0 255
-0.033435762 0.10998621 0.04123468 0 0 0 255
-0.032971587 0.1101626 0.041094668 0 0 0 255
-0.032449789 0.11036634 0.04106465 0 0 0 255
-0.031985611 0.11054274 0.040924639 0 0 0 255
-0.031521432 0.11071913 0.040784631 0 0 0 255
-0.031056909 0.11089458 0.040644623 0 0 0 255
-0.03059273 0.11107098 0.040504619 0 0 0 255
-0.030070808 0.11127583 0.040475465 0 0 0 255
-0.029663902 0.11142392 0.040225472 0 0 0 255
-0.029199382 0.11159938 0.040085465 0 0 0 255
-0.028735206 0.11177577 0.039945457 0 0 0 255
-0.028271023 0.11195216 0.039805453 0 0 0 255
-0.027806846 0.11212855 0.039665446 0 0 0 255
