ply
format ascii 1.0
comment PCL generated
element vertex 1039
property float x
property float y
property float z
property uchar red
property uchar green
property uchar blue
property uchar alpha
element camera 0
property float view_px
property float view_py
property float view_pz
property float x_axisx
property float x_axisy
property float x_axisz
property float y_axisx
property float y_axisy
property float y_axisz
property float z_axisx
property float z_axisy
property float z_axisz
property float focal
property float scalex
property float scaley
property float centerx
property float centery
property int viewportx
property int viewporty
property float k1
property float k2
end_header
-0.081640199 0.11777446 0.07389088 0 0 0 255
-0.081407852 0.11784517 0.073310941 0 0 0 255
-0.081350073 0.11783853 0.072401024 0 0 0 255
-0.081176028 0.1178838 0.071711086 0 0 0 255
-0.081118248 0.11787715 0.070801169 0 0 0 255
-0.081060462 0.11787052 0.069891259 0 0 0 255
-0.081060641 0.11783747 0.068871364 0 0 0 255
-0.081060693 0.11780551 0.067852333 0 0 0 255
-0.080944605 0.11782436 0.067052409 0 0 0 255
-0.081003428 0.11776675 0.065922529 0 0 0 255
-0.081294432 0.11760446 0.064352706 0 0 0 255
-0.081353247 0.11754686 0.063222818 0 0 0 255
-0.081353426 0.11751382 0.062202919 0 0 0 255
-0.081121087 0.11758453 0.06162297 0 0 0 255
-0.080888748 0.11765528 0.061043017 0 0 0 255
-0.080714703 0.11770053 0.060353078 0 0 0 255
-0.080481879 0.1177714 0.059773993 0 0 0 255
-0.08019124 0.11786762 0.059304025 0 0 0 255
-0.07990095 0.11796478 0.058834061 0 0 0 255
-0.079610303 0.11806099 0.058364093 0 0 0 255
-0.079319656 0.11815719 0.057894129 0 0 0 255
-0.079029351 0.11825432 0.057424165 0 0 0 255
-0.078797005 0.11832505 0.056844212 0 0 0 255
-0.078564666 0.11839579 0.056264259 0 0 0 255
-0.07833232 0.11846651 0.055684306 0 0 0 255
-0.078157946 0.11851083 0.054994371 0 0 0 255
-0.0779256 0.11858156 0.054414418 0 0 0 255
-0.077751555 0.1186268 0.053724479 0 0 0 255
-0.077577509 0.11867204 0.05303454 0 0 0 255
-0.07746096 0.11869106 0.052235484 0 0 0 255
-0.07734488 0.11870991 0.05143556 0 0 0 255
-0.077287093 0.11870328 0.05052565 0 0 0 255
-0.077462181 0.11859379 0.049175791 0 0 0 255
-0.077637255 0.1184843 0.04782594 0 0 0 255
-0.078044862 0.11827103 0.046036139 0 0 0 255
-0.078044564 0.11823815 0.045017108 0 0 0 255
-0.077986792 0.11823151 0.044107199 0 0 0 255
-0.078336433 0.11804467 0.042427383 0 0 0 255
-0.078569464 0.11790878 0.040967539 0 0 0 255
-0.079267755 0.11756735 0.038628675 0 0 0 255
-0.079268277 0.11753525 0.03760878 0 0 0 255
-0.079559624 0.11737388 0.03603895 0 0 0 255
-0.11122419 0.10688898 0.063790843 0 0 0 255
-0.1102936 0.10726918 0.06453073 0 0 0 255
-0.10447431 0.10980856 0.074506857 0 0 0 255
-0.10261227 0.11060014 0.077006519 0 0 0 255
-0.10179795 0.11092845 0.07752642 0 0 0 255
-0.10080919 0.11133301 0.078375429 0 0 0 255
-0.099994868 0.11166131 0.078895345 0 0 0 255
-0.099238843 0.11196415 0.079305261 0 0 0 255
-0.09848281 0.11226698 0.079715185 0 0 0 255
-0.097726442 0.11256887 0.080125108 0 0 0 255
-0.097086675 0.1128198 0.080315061 0 0 0 255
-0.096388943 0.11309716 0.080614999 0 0 0 255
-0.095807612 0.11332153 0.080694102 0 0 0 255
-0.095167853 0.11357246 0.080884054 0 0 0 255
-0.094528086 0.1138234 0.081073999 0 0 0 255
-0.093946621 0.11404885 0.081153966 0 0 0 255
-0.093365148 0.11427432 0.081233934 0 0 0 255
-0.092725381 0.11452525 0.081423894 0 0 0 255
-0.092143916 0.11475073 0.081503846 0 0 0 255
-0.091620408 0.11494978 0.081473827 0 0 0 255
-0.091038942 0.11517523 0.081553802 0 0 0 255
-0.090515785 0.11537522 0.081523776 0 0 0 255
-0.089992285 0.11557428 0.08149375 0 0 0 255
-0.08947172 0.11577119 0.081457675 0 0 0 255
-0.089009583 0.1159415 0.081310734 0 0 0 255
-0.088546984 0.11611199 0.081164666 0 0 0 255
-0.088084728 0.11628343 0.081018597 0 0 0 255
-0.087677822 0.11643153 0.0807686 0 0 0 255
-0.087270923 0.11657962 0.080518611 0 0 0 255
-0.086864017 0.11672772 0.080268621 0 0 0 255
-0.086457118 0.11687581 0.080018625 0 0 0 255
-0.086050212 0.11702391 0.079768628 0 0 0 255
-0.085698657 0.11714867 0.07941471 0 0 0 255
-0.085347451 0.11727437 0.079060793 0 0 0 255
-0.084995776 0.11740024 0.07870774 0 0 0 255
-0.084644563 0.11752594 0.078353822 0 0 0 255
-0.084237657 0.11767403 0.078103833 0 0 0 255
-0.083947018 0.11777024 0.077633865 0 0 0 255
-0.083656713 0.11786737 0.077163905 0 0 0 255
-0.083307773 0.11798906 0.076803923 0 0 0 255
-0.083017468 0.11808621 0.076333955 0 0 0 255
-0.08278513 0.11815694 0.075754002 0 0 0 255
-0.082494482 0.11825316 0.075284034 0 0 0 255
-0.082262486 0.1183248 0.074704088 0 0 0 255
-0.082088441 0.11837007 0.07401415 0 0 0 255
-0.081856102 0.1184408 0.073434204 0 0 0 255
-0.081682056 0.11848605 0.072744265 0 0 0 255
-0.081565969 0.11850489 0.071944334 0 0 0 255
-0.081449762 0.11852483 0.071145274 0 0 0 255
-0.081334017 0.11854461 0.07034535 0 0 0 255
-0.081334546 0.11851248 0.069325455 0 0 0 255
-0.08133506 0.11848038 0.068305559 0 0 0 255
-0.081277281 0.11847375 0.067395642 0 0 0 255
-0.081219837 0.11846805 0.066485733 0 0 0 255
-0.08145275 0.11833326 0.06502676 0 0 0 255
-0.081453271 0.11830114 0.064006865 0 0 0 255
-0.081570387 0.11821808 0.062766999 0 0 0 255
-0.081454307 0.1182369 0.061967071 0 0 0 255
-0.081280261 0.11828215 0.061277129 0 0 0 255
-0.081106231 0.11832743 0.060587198 0 0 0 255
-0.080932185 0.11837268 0.059897259 0 0 0 255
-0.080641881 0.11846981 0.059427291 0 0 0 255
-0.080350772 0.11856619 0.058958191 0 0 0 255
-0.080060124 0.11866239 0.058488224 0 0 0 255
-0.079828128 0.11873406 0.057908274 0 0 0 255
-0.079479173 0.11885576 0.057548292 0 0 0 255
-0.079247184 0.11892741 0.056968343 0 0 0 255
-0.079014838 0.11899814 0.056388389 0 0 0 255
-0.078724191 0.11909433 0.055918425 0 0 0 255
-0.078550152 0.11913961 0.055228487 0 0 0 255
-0.078317806 0.11921033 0.054648533 0 0 0 255
-0.078143761 0.11925557 0.053958595 0 0 0 255
-0.077969715 0.11930083 0.053268656 0 0 0 255
-0.077853978 0.11932061 0.052468732 0 0 0 255
-0.077796206 0.11931397 0.051558822 0 0 0 255
-0.077738293 0.11930846 0.050649777 0 0 0 255
-0.077971667 0.11917348 0.049189936 0 0 0 255
-0.078321308 0.11898663 0.047510125 0 0 0 255
-0.07867083 0.11880089 0.045831174 0 0 0 255
-0.078671351 0.11876878 0.044811279 0 0 0 255
-0.078613564 0.11876216 0.043901365 0 0 0 255
-0.078788996 0.11865363 0.04255151 0 0 0 255
-0.079080671 0.11849318 0.040981688 0 0 0 255
-0.079779305 0.11815269 0.038642816 0 0 0 255
-0.079896092 0.1180687 0.03740295 0 0 0 255
-0.080187775 0.11790827 0.03583312 0 0 0 255
-0.11225873 0.10724034 0.062815115 0 0 0 255
-0.1112695 0.10764508 0.06366498 0 0 0 255
-0.11068804 0.10787053 0.063744955 0 0 0 255
-0.10381866 0.11086661 0.075700827 0 0 0 255
-0.10259669 0.11137308 0.07698977 0 0 0 255
-0.10172406 0.11172687 0.077619672 0 0 0 255
-0.10096769 0.11202876 0.078029595 0 0 0 255
-0.10003676 0.11240802 0.078769475 0 0 0 255
-0.099338688 0.11268443 0.079069406 0 0 0 255
-0.098640621 0.11296085 0.079369351 0 0 0 255
-0.09788426 0.11326273 0.079779282 0 0 0 255
-0.097302794 0.11348821 0.079859242 0 0 0 255
-0.096605197 0.11376444 0.080158316 0 0 0 255
-0.096023381 0.11398897 0.080238283 0 0 0 255
-0.095325314 0.11426537 0.080538213 0 0 0 255
-0.094802149 0.11446536 0.080508195 0 0 0 255
-0.094162047 0.11471538 0.080698147 0 0 0 255
-0.093580581 0.11494084 0.080778114 0 0 0 255
-0.09299878 0.11516535 0.080858082 0 0 0 255
-0.092417315 0.11539083 0.080938041 0 0 0 255
-0.091835842 0.11561629 0.081018008 0 0 0 255
-0.091254033 0.11584082 0.081097975 0 0 0 255
-0.090730868 0.1160408 0.08106795 0 0 0 255
-0.090207361 0.11623986 0.081037931 0 0 0 255
-0.089742161 0.11641341 0.080897927 0 0 0 255
-0.089277431 0.11658682 0.080757052 0 0 0 255
-0.08881256 0.11676132 0.08061704 0 0 0 255
-0.08834736 0.11693491 0.080477044 0 0 0 255
-0.087940454 0.11708301 0.080227047 0 0 0 255
-0.087533548 0.1172311 0.07997705 0 0 0 255
-0.087126642 0.1173792 0.079727054 0 0 0 255
-0.086719736 0.11752729 0.079477064 0 0 0 255
-0.086312838 0.11767539 0.079227075 0 0 0 255
-0.085964233 0.11779799 0.078867093 0 0 0 255
-0.085557327 0.11794609 0.078617096 0 0 0 255
-0.085266218 0.11804248 0.078148 0 0 0 255
-0.084859312 0.11819057 0.077898011 0 0 0 255
-0.084510714 0.1183132 0.077538028 0 0 0 255
-0.084220409 0.11841033 0.077068061 0 0 0 255
-0.083871461 0.118532 0.076708078 0 0 0 255
-0.083581164 0.11862917 0.076238111 0 0 0 255
-0.08329086 0.11872631 0.07576815 0 0 0 255
-0.08300022 0.11882252 0.07529819 0 0 0 255
-0.082709916 0.11891966 0.074828215 0 0 0 255
-0.08253587 0.1189649 0.074138276 0 0 0 255
-0.082303531 0.11903563 0.073558331 0 0 0 255
-0.082071535 0.1191073 0.072978377 0 0 0 255
-0.081955791 0.11912708 0.072178453 0 0 0 255
-0.081781745 0.11917233 0.071488515 0 0 0 255
-0.081666008 0.11919212 0.07068859 0 0 0 255
-0.081666395 0.11916111 0.06966956 0 0 0 255
-0.081608951 0.1191554 0.06875965 0 0 0 255
-0.08160948 0.11912331 0.067739755 0 0 0 255
-0.081552029 0.1191176 0.066829838 0 0 0 255
-0.0814946 0.1191119 0.065919936 0 0 0 255
-0.081670024 0.11900337 0.064570077 0 0 0 255
-0.081670418 0.11897235 0.063551046 0 0 0 255
-0.081554674 0.11899212 0.062751122 0 0 0 255
-0.081380628 0.11903738 0.062061183 0 0 0 255
-0.08120659 0.11908264 0.061371244 0 0 0 255
-0.081207454 0.11905146 0.060351346 0 0 0 255
-0.081091709 0.11907123 0.059551422 0 0 0 255
-0.080801062 0.11916745 0.059081458 0 0 0 255
-0.080452465 0.11929008 0.058721479 0 0 0 255
-0.08016216 0.11938721 0.058251508 0 0 0 255
-0.079871044 0.1194836 0.057782412 0 0 0 255
-0.079581216 0.11958055 0.05731158 0 0 0 255
-0.079406708 0.11962598 0.056622505 0 0 0 255
-0.079116404 0.11972311 0.056152545 0 0 0 255
-0.078884058 0.11979386 0.055572592 0 0 0 255
-0.078651711 0.11986458 0.054992639 0 0 0 255
-0.078536317 0.1198853 0.054192714 0 0 0 255
-0.078303978 0.11995604 0.053612761 0 0 0 255
-0.078188233 0.11997582 0.052812837 0 0 0 255
-0.078072496 0.11999557 0.052012913 0 0 0 255
-0.078015059 0.11998989 0.051103003 0 0 0 255
-0.078248307 0.11985604 0.049644023 0 0 0 255
-0.078831159 0.1195673 0.047524266 0 0 0 255
-0.079413876 0.11927965 0.045405373 0 0 0 255
-0.07918153 0.11935038 0.044825424 0 0 0 255
-0.079182386 0.1193192 0.043805525 0 0 0 255
-0.07929951 0.11923613 0.042565659 0 0 0 255
-0.079591542 0.11907664 0.040995829 0 0 0 255
-0.080174252 0.11878899 0.038876936 0 0 0 255
-0.080640838 0.11855213 0.03697715 0 0 0 255
-0.080757968 0.11846907 0.035737284 0 0 0 255
-0.1127113 0.10784927 0.062939242 0 0 0 255
-0.11172173 0.10825308 0.063789114 0 0 0 255
-0.1086355 0.10957854 0.068597622 0 0 0 255
-0.10811199 0.10977757 0.068567604 0 0 0 255
-0.10397749 0.1115633 0.075354993 0 0 0 255
-0.10275552 0.11206976 0.076643936 0 0 0 255
-0.10182425 0.11244811 0.077383816 0 0 0 255
-0.10106789 0.11274996 0.077793747 0 0 0 255
-0.10025322 0.11307734 0.078313664 0 0 0 255
-0.099496849 0.11337923 0.07872358 0 0 0 255
-0.098798908 0.11365454 0.079022653 0 0 0 255
-0.098159142 0.11390548 0.079212606 0 0 0 255
-0.097460732 0.11418095 0.079512537 0 0 0 255
-0.096820965 0.11443189 0.079702489 0 0 0 255
-0.096239164 0.11465642 0.079782456 0 0 0 255
-0.095599398 0.11490735 0.079972416 0 0 0 255
-0.095017597 0.11513188 0.080052376 0 0 0 255
-0.094436124 0.11535735 0.080132335 0 0 0 255
-0.093854308 0.11558186 0.08021231 0 0 0 255
-0.093214676 0.1158317 0.080401391 0 0 0 255
-0.092633203 0.11605717 0.08048135 0 0 0 255
-0.092051402 0.11628167 0.080561325 0 0 0 255
-0.091527902 0.11648074 0.080531299 0 0 0 255
-0.091004744 0.11668073 0.080501281 0 0 0 255
-0.090481229 0.11687978 0.080471262 0 0 0 255
-0.090016022 0.11705334 0.080331251 0 0 0 255
-0.089492515 0.11725239 0.080301233 0 0 0 255
-0.0890273 0.11742596 0.080161229 0 0 0 255
-0.088620409 0.11757406 0.079911232 0 0 0 255
-0.088213503 0.11772215 0.079661235 0 0 0 255
-0.087748647 0.11789667 0.079521224 0 0 0 255
-0.087399691 0.11801834 0.079161257 0 0 0 255
-0.086992785 0.11816644 0.07891126 0 0 0 255
-0.086585879 0.11831453 0.078661263 0 0 0 255
-0.086178981 0.11846264 0.078411266 0 0 0 255
-0.085830376 0.11858526 0.078051291 0 0 0 255
-0.085481778 0.11870788 0.077691317 0 0 0 255
-0.08513318 0.11883049 0.077331334 0 0 0 255
-0.084842876 0.11892764 0.076861367 0 0 0 255
-0.08443597 0.11907574 0.07661137 0 0 0 255
-0.084087372 0.11919837 0.076251388 0 0 0 255
-0.083855018 0.11926908 0.075671442 0 0 0 255
-0.083564714 0.11936623 0.075201482 0 0 0 255
-0.083274424 0.11946338 0.074731514 0 0 0 255
-0.083042078 0.11953411 0.074151561 0 0 0 255
-0.082751304 0.11963142 0.073682457 0 0 0 255
-0.082577601 0.11967761 0.072992519 0 0 0 255
-0.082345262 0.11974834 0.072412565 0 0 0 255
-0.082171559 0.11979453 0.071722627 0 0 0 255
-0.081997514 0.11983979 0.071032688 0 0 0 255
-0.08194042 0.11983503 0.070122778 0 0 0 255
-0.081941292 0.11980385 0.069102883 0 0 0 255
-0.081825539 0.11982362 0.068302959 0 0 0 255
-0.081825934 0.11979263 0.067283928 0 0 0 255
-0.081826799 0.11976145 0.066264033 0 0 0 255
-0.081885964 0.11970482 0.065134153 0 0 0 255
-0.081770562 0.11972553 0.064334229 0 0 0 255
-0.081654817 0.1197453 0.063534304 0 0 0 255
-0.08153908 0.11976507 0.06273438 0 0 0 255
-0.081306607 0.11983691 0.062155291 0 0 0 255
-0.08107461 0.11990859 0.061575338 0 0 0 255
-0.081075475 0.11987741 0.060555443 0 0 0 255
-0.081076331 0.11984623 0.059535548 0 0 0 255
-0.080843985 0.11991696 0.058955595 0 0 0 255
-0.080553696 0.12001411 0.058485627 0 0 0 255
-0.080263391 0.12011126 0.058015659 0 0 0 255
-0.08003138 0.12018292 0.057435706 0 0 0 255
-0.079799041 0.12025366 0.056855761 0 0 0 255
-0.079566568 0.12032549 0.056276672 0 0 0 255
-0.079334229 0.12039622 0.055696718 0 0 0 255
-0.079160526 0.12044242 0.05500678 0 0 0 255
-0.078986488 0.12048767 0.054316845 0 0 0 255
-0.078812793 0.12053385 0.053626906 0 0 0 255
-0.078638747 0.12057911 0.052936967 0 0 0 255
-0.078465044 0.12062529 0.052247025 0 0 0 255
-0.078349307 0.12064508 0.051447105 0 0 0 255
-0.078466766 0.12056296 0.050207235 0 0 0 255
-0.078816622 0.12037815 0.048528288 0 0 0 255
-0.080040656 0.11981028 0.045199551 0 0 0 255
-0.079750359 0.11990742 0.044729579 0 0 0 255
-0.079751216 0.11987625 0.043709684 0 0 0 255
-0.079752073 0.11984507 0.042689785 0 0 0 255
-0.080219008 0.11960916 0.040789999 0 0 0 255
-0.080219403 0.11957816 0.039770972 0 0 0 255
-0.08138559 0.11903557 0.036551349 0 0 0 255
-0.081735447 0.11885079 0.034872402 0 0 0 255
-0.11298896 0.10853465 0.063393332 0 0 0 255
-0.11223224 0.1088356 0.063803256 0 0 0 255
-0.10902886 0.11020902 0.06883087 0 0 0 255
-0.10844705 0.11043353 0.068910837 0 0 0 255
-0.10798185 0.1106071 0.068770833 0 0 0 255
-0.10413668 0.11226092 0.075009152 0 0 0 255
-0.10291437 0.11276647 0.076298103 0 0 0 255
-0.1019831 0.11314477 0.07703799 0 0 0 255
-0.10110978 0.11349668 0.077667885 0 0 0 255
-0.10041184 0.11377198 0.077966951 0 0 0 255
-0.099655479 0.11407389 0.078376874 0 0 0 255
-0.098957077 0.11434935 0.07867682 0 0 0 255
-0.09831696 0.11459935 0.078866765 0 0 0 255
-0.097677194 0.11485029 0.079056725 0 0 0 255
-0.097037092 0.11510029 0.07924667 0 0 0 255
-0.096455276 0.11532482 0.07932663 0 0 0 255
-0.09587346 0.11554933 0.079406604 0 0 0 255
-0.095233366 0.11579935 0.079596549 0 0 0 255
-0.094651893 0.11602479 0.079676524 0 0 0 255
-0.094070569 0.11624916 0.079755619 0 0 0 255
-0.093547061 0.11644822 0.079725593 0 0 0 255
-0.092906944 0.11669819 0.079915546 0 0 0 255
-0.092325136 0.11692273 0.079995513 0 0 0 255
-0.091743328 0.11714725 0.08007548 0 0 0 255
-0.091278121 0.11732082 0.079935469 0 0 0 255
-0.090754956 0.11752081 0.07990545 0 0 0 255
-0.090231463 0.11771986 0.079875432 0 0 0 255
-0.089766257 0.11789344 0.079735428 0 0 0 255
-0.08930105 0.118067 0.079595417 0 0 0 255
-0.088835835 0.11824057 0.079455405 0 0 0 255
-0.088428929 0.11838867 0.079205416 0 0 0 255
-0.088022023 0.11853677 0.078955427 0 0 0 255
-0.087615117 0.11868486 0.07870543 0 0 0 255
-0.087208226 0.11883296 0.078455441 0 0 0 255
-0.086859621 0.11895557 0.078095451 0 0 0 255
-0.086452723 0.11910367 0.077845462 0 0 0 255
-0.086104117 0.1192263 0.077485487 0 0 0 255
-0.085697211 0.11937439 0.07723549 0 0 0 255
-0.085406907 0.11947153 0.076765522 0 0 0 255
-0.085058302 0.11959416 0.07640554 0 0 0 255
-0.084709361 0.11971585 0.076045565 0 0 0 255
-0.084419057 0.11981298 0.075575605 0 0 0 255
-0.084070459 0.11993559 0.075215623 0 0 0 255
-0.083838455 0.12000727 0.07463567 0 0 0 255
-0.083548151 0.1201044 0.074165702 0 0 0 255
-0.083257854 0.12020155 0.073695734 0 0 0 255
-0.08302585 0.12027322 0.073115781 0 0 0 255
-0.082851678 0.12031958 0.072426714 0 0 0 255
-0.082619339 0.12039033 0.071846768 0 0 0 255
-0.082445636 0.1204365 0.071156822 0 0 0 255
-0.082271934 0.12048269 0.070466883 0 0 0 255
-0.08221484 0.12047794 0.069556974 0 0 0 255
-0.082274005 0.1204213 0.068427086 0 0 0 255
-0.082100302 0.12046748 0.067737147 0 0 0 255
-0.082042731 0.12046291 0.066828102 0 0 0 255
-0.082101896 0.12040624 0.065698221 0 0 0 255
-0.081986502 0.12042697 0.064898297 0 0 0 255
-0.081929065 0.12042125 0.063988388 0 0 0 255
-0.081697062 0.12049294 0.063408434 0 0 0 255
-0.081523359 0.12053914 0.062718503 0 0 0 255
-0.081291363 0.12061079 0.06213855 0 0 0 255
-0.081059359 0.12068248 0.061558597 0 0 0 255
-0.080885321 0.12072772 0.060868658 0 0 0 255
-0.080944344 0.12067218 0.059739642 0 0 0 255
-0.080945551 0.12064194 0.058719747 0 0 0 255
-0.080713212 0.12071268 0.058139794 0 0 0 255
-0.080481216 0.12078433 0.05755984 0 0 0 255
-0.080307513 0.12083054 0.056869902 0 0 0 255
-0.080133811 0.12087672 0.056179967 0 0 0 255
-0.079960108 0.12092291 0.055490028 0 0 0 255
-0.0797856 0.12096836 0.05480095 0 0 0 255
-0.079611905 0.12101454 0.054111019 0 0 0 255
-0.079438202 0.12106073 0.053421076 0 0 0 255
-0.079206198 0.12113241 0.052841127 0 0 0 255
-0.079090461 0.12115219 0.052041203 0 0 0 255
-0.078916766 0.12119836 0.051351264 0 0 0 255
-0.078743063 0.12124455 0.050661325 0 0 0 255
-0.078918353 0.12113714 0.049312338 0 0 0 255
-0.080784038 0.12028994 0.044773746 0 0 0 255
-0.08043544 0.12041259 0.044413768 0 0 0 255
-0.080378339 0.12040783 0.043503858 0 0 0 255
-0.080262937 0.12042853 0.042703934 0 0 0 255
-0.080555305 0.12026999 0.041134104 0 0 0 255
-0.080672301 0.12018803 0.039895102 0 0 0 255
-0.082304776 0.11944276 0.035796456 0 0 0 255
-0.082189381 0.11946347 0.034996532 0 0 0 255
-0.11349948 0.10911717 0.063407481 0 0 0 255
-0.11274277 0.10941812 0.063817404 0 0 0 255
-0.10948005 0.1108142 0.068955004 0 0 0 255
-0.10878165 0.11108968 0.069254942 0 0 0 255
-0.10796629 0.11141518 0.069774851 0 0 0 255
-0.10779259 0.11146135 0.069084913 0 0 0 255
-0.10435496 0.11293384 0.074552462 0 0 0 255
-0.10301524 0.11348957 0.076062247 0 0 0 255
-0.1020833 0.113866 0.076802142 0 0 0 255
-0.10132658 0.11416696 0.077212065 0 0 0 255
-0.10057034 0.11446773 0.077621117 0 0 0 255
-0.099930234 0.11471774 0.07781107 0 0 0 255
-0.099231824 0.11499321 0.078111008 0 0 0 255
-0.098591715 0.1152432 0.07830096 0 0 0 255
-0.097893313 0.11551867 0.078600898 0 0 0 255
-0.097311512 0.11574322 0.078680858 0 0 0 255
-0.096729703 0.11596774 0.078760833 0 0 0 255
-0.096090063 0.11621756 0.078949913 0 0 0 255
-0.095508248 0.11644208 0.07902988 0 0 0 255
-0.094926439 0.11666659 0.079109848 0 0 0 255
-0.094344631 0.11689115 0.079189807 0 0 0 255
-0.093762822 0.11711566 0.079269774 0 0 0 255
-0.093181022 0.11734018 0.079349741 0 0 0 255
-0.092599213 0.11756469 0.079429708 0 0 0 255
-0.092017412 0.11778923 0.079509676 0 0 0 255
-0.091493905 0.11798827 0.07947965 0 0 0 255
-0.090970397 0.11818733 0.079449631 0 0 0 255
-0.09050519 0.11836089 0.079309627 0 0 0 255
-0.090039976 0.11853446 0.079169616 0 0 0 255
-0.089574777 0.11870804 0.079029605 0 0 0 255
-0.089167878 0.11885613 0.078779615 0 0 0 255
-0.088702671 0.11902971 0.078639612 0 0 0 255
-0.088295765 0.1191778 0.078389615 0 0 0 255
-0.08794716 0.11930042 0.078029633 0 0 0 255
-0.087540254 0.11944851 0.077779636 0 0 0 255
-0.087133355 0.11959662 0.077529646 0 0 0 255
-0.08678475 0.11971922 0.077169664 0 0 0 255
-0.086377844 0.11986732 0.076919675 0 0 0 255
-0.086029246 0.11998995 0.0765597 0 0 0 255
-0.085680649 0.12011258 0.076199718 0 0 0 255
-0.085332036 0.1202352 0.075839736 0 0 0 255
-0.084983438 0.12035781 0.075479761 0 0 0 255
-0.084693134 0.12045496 0.075009793 0 0 0 255
-0.084402829 0.12055211 0.074539825 0 0 0 255
-0.084054232 0.12067471 0.074179843 0 0 0 255
-0.083822228 0.12074639 0.073599897 0 0 0 255
-0.083531931 0.12084353 0.07312993 0 0 0 255
-0.083299927 0.1209152 0.072549976 0 0 0 255
-0.083126225 0.12096138 0.071860045 0 0 0 255
-0.082894221 0.12103307 0.071280085 0 0 0 255
-0.082720526 0.12107927 0.070590146 0 0 0 255
-0.082546353 0.12112561 0.069901079 0 0 0 255
-0.082664169 0.12104444 0.068661213 0 0 0 255
-0.082490467 0.12109064 0.067971274 0 0 0 255
-0.082375064 0.12111136 0.06717135 0 0 0 255
-0.082492873 0.12103015 0.065931477 0 0 0 255
-0.082318693 0.12107652 0.065242402 0 0 0 255
-0.082144998 0.12112272 0.064552471 0 0 0 255
-0.081971645 0.12116987 0.063862532 0 0 0 255
-0.081739634 0.12124151 0.063282579 0 0 0 255
-0.081565939 0.12128772 0.062592641 0 0 0 255
-0.081275642 0.12138485 0.062122673 0 0 0 255
-0.081043638 0.12145652 0.06154272 0 0 0 255
-0.080753334 0.12155365 0.061072752 0 0 0 255
-0.08069624 0.12154891 0.060162842 0 0 0 255
-0.081163384 0.12131502 0.058263924 0 0 0 255
-0.08093138 0.12138671 0.057683975 0 0 0 255
-0.080699377 0.12145838 0.057104021 0 0 0 255
-0.080525681 0.12150457 0.056414083 0 0 0 255
-0.080351979 0.12155075 0.055724144 0 0 0 255
-0.080119982 0.12162242 0.055144191 0 0 0 255
-0.079945803 0.12166879 0.054455116 0 0 0 255
-0.079830416 0.12168951 0.053655192 0 0 0 255
-0.079656713 0.12173569 0.052965257 0 0 0 255
-0.079541311 0.12175642 0.052165333 0 0 0 255
-0.079426259 0.12177808 0.051365405 0 0 0 255
-0.079310864 0.1217988 0.050565485 0 0 0 255
-0.079195462 0.1218195 0.049765557 0 0 0 255
-0.079196192 0.12178946 0.048746526 0 0 0 255
-0.081237465 0.12086772 0.043877982 0 0 0 255
-0.080947161 0.12096485 0.043408014 0 0 0 255
-0.08094836 0.12093462 0.042388119 0 0 0 255
-0.081066512 0.1208544 0.041148245 0 0 0 255
-0.08112555 0.12079886 0.040019233 0 0 0 255
-0.082991913 0.11995355 0.035480641 0 0 0 255
-0.082701609 0.1200507 0.035010677 0 0 0 255
-0.082527921 0.1200969 0.034320738 0 0 0 255
-0.11406865 0.10967516 0.063311636 0 0 0 255
-0.1132533 0.11000066 0.063831545 0 0 0 255
-0.11010616 0.11134294 0.068749174 0 0 0 255
-0.10934909 0.11164294 0.069159098 0 0 0 255
-0.10841715 0.1120194 0.069898978 0 0 0 255
-0.10783534 0.11224391 0.069978952 0 0 0 255
-0.10573749 0.11312878 0.072917685 0 0 0 255
-0.10445586 0.11365695 0.074316621 0 0 0 255
-0.10317409 0.11418626 0.075716421 0 0 0 255
-0.10235955 0.11451251 0.076235466 0 0 0 255
-0.10160249 0.11481251 0.076645389 0 0 0 255
-0.10078748 0.11513895 0.077165291 0 0 0 255
-0.10014705 0.11538801 0.077355251 0 0 0 255
-0.099448636 0.11566348 0.077655189 0 0 0 255
-0.098808177 0.11591255 0.077845141 0 0 0 255
-0.098109767 0.11618802 0.078145072 0 0 0 255
-0.097528428 0.11641236 0.078224175 0 0 0 255
-0.096946619 0.11663689 0.078304142 0 0 0 255
-0.096364476 0.11686049 0.078384109 0 0 0 255
-0.095782667 0.11708499 0.078464076 0 0 0 255
-0.095142566 0.11733501 0.078654021 0 0 0 255
-0.094619058 0.11753406 0.078624003 0 0 0 255
-0.094036907 0.11775763 0.07870397 0 0 0 255
-0.093455091 0.11798216 0.078783929 0 0 0 255
-0.092873283 0.11820666 0.078863904 0 0 0 255
-0.092349775 0.11840573 0.078833878 0 0 0 255
-0.091768101 0.11862913 0.078912973 0 0 0 255
-0.091302432 0.11880289 0.078773841 0 0 0 255
-0.090779394 0.11900177 0.078742951 0 0 0 255
-0.090372488 0.11914986 0.078492954 0 0 0 255
-0.089907281 0.11932342 0.078352943 0 0 0 255
-0.089442074 0.119497 0.078212947 0 0 0 255
-0.088976875 0.11967057 0.078072935 0 0 0 255
-0.08862827 0.11979319 0.077712953 0 0 0 255
-0.088221371 0.11994129 0.077462971 0 0 0 255
-0.087756157 0.12011486 0.07732296 0 0 0 255
-0.087407559 0.12023748 0.076962978 0 0 0 255
-0.087000653 0.12038558 0.076712981 0 0 0 255
-0.086652048 0.12050819 0.076352999 0 0 0 255
-0.08630345 0.12063082 0.075993024 0 0 0 255
-0.085954845 0.12075344 0.075633042 0 0 0 255
-0.08560577 0.12087624 0.075273931 0 0 0 255
-0.085257635 0.12099867 0.074913085 0 0 0 255
-0.084967211 0.12109694 0.074443981 0 0 0 255
-0.084676906 0.12119409 0.073974021 0 0 0 255
-0.084328301 0.12131669 0.073614039 0 0 0 255
-0.084096305 0.12138837 0.073034085 0 0 0 255
-0.083806001 0.1214855 0.072564118 0 0 0 255
-0.083632648 0.12153266 0.071874186 0 0 0 255
-0.083400644 0.12160431 0.071294233 0 0 0 255
-0.083168641 0.12167598 0.07071428 0 0 0 255
-0.082994945 0.12172217 0.070024341 0 0 0 255
-0.082937717 0.12171853 0.069115296 0 0 0 255
-0.082938917 0.1216883 0.068095401 0 0 0 255
-0.082765564 0.12173542 0.067405462 0 0 0 255
-0.082591861 0.12178162 0.066715524 0 0 0 255
-0.082710013 0.12170136 0.065475658 0 0 0 255
-0.082419716 0.12179853 0.06500569 0 0 0 255
-0.082303837 0.1218194 0.06420663 0 0 0 255
-0.082072183 0.12189201 0.063626677 0 0 0 255
-0.081781879 0.12198915 0.063156709 0 0 0 255
-0.081549883 0.12206082 0.062576763 0 0 0 255
-0.081259578 0.12215796 0.062106796 0 0 0 255
-0.081027582 0.12222964 0.061526842 0 0 0 255
-0.080854215 0.12227677 0.060836904 0 0 0 255
-0.08073882 0.12229749 0.06003698 0 0 0 255
-0.081381544 0.12198906 0.057808101 0 0 0 255
-0.080974638 0.12213715 0.057558108 0 0 0 255
-0.080800951 0.12218337 0.056868169 0 0 0 255
-0.080568947 0.122255 0.05628822 0 0 0 255
-0.080337286 0.12232763 0.055708267 0 0 0 255
-0.08010529 0.1223993 0.055128314 0 0 0 255
-0.079931587 0.12244549 0.054438375 0 0 0 255
-0.079816535 0.12246715 0.053638451 0 0 0 255
-0.079758957 0.12246255 0.052729405 0 0 0 255
-0.079702206 0.12245874 0.051819496 0 0 0 255
-0.079820015 0.12237755 0.05057963 0 0 0 255
-0.079763263 0.12237374 0.04966972 0 0 0 255
-0.079589084 0.12242012 0.048980646 0 0 0 255
-0.079882145 0.12226344 0.047410816 0 0 0 255
-0.081749529 0.12142095 0.042872228 0 0 0 255
-0.081634477 0.12144261 0.042072304 0 0 0 255
-0.081576906 0.12143801 0.041163258 0 0 0 255
-0.081636757 0.12138326 0.040033378 0 0 0 255
-0.083562449 0.1205153 0.0353848 0 0 0 255
-0.083155543 0.1206634 0.035134807 0 0 0 255
-0.083040491 0.12068506 0.034334883 0 0 0 255
-0.11382246 0.11055864 0.063735709 0 0 0 255
-0.11079056 0.11184622 0.068433359 0 0 0 255
-0.1099752 0.11217172 0.068953268 0 0 0 255
-0.10915985 0.11249722 0.069473177 0 0 0 255
-0.1083445 0.1128227 0.069993094 0 0 0 255
-0.10752961 0.11314801 0.070512131 0 0 0 255
-0.10589735 0.11382826 0.072571844 0 0 0 255
-0.10461538 0.11435553 0.073970787 0 0 0 255
-0.10350819 0.11480744 0.075040624 0 0 0 255
-0.1025767 0.11518371 0.075779647 0 0 0 255
-0.10181964 0.11548374 0.076189563 0 0 0 255
-0.10106258 0.11578374 0.076599494 0 0 0 255
-0.10036384 0.11605827 0.076899424 0 0 0 255
-0.099723727 0.11630827 0.077089384 0 0 0 255
-0.099141575 0.11653186 0.077169344 0 0 0 255
-0.09844365 0.11680718 0.077468418 0 0 0 255
-0.097861499 0.11703075 0.077548385 0 0 0 255
-0.097279683 0.11725528 0.077628344 0 0 0 255
-0.096639231 0.11750434 0.077818304 0 0 0 255
-0.09605743 0.11772885 0.077898264 0 0 0 255
-0.095475271 0.11795244 0.077978224 0 0 0 255
-0.09489347 0.11817697 0.078058198 0 0 0 255
-0.094253018 0.11842601 0.078248151 0 0 0 255
-0.093729518 0.11862507 0.078218125 0 0 0 255
-0.093147837 0.1188485 0.078297228 0 0 0 255
-0.09268263 0.11902206 0.078157216 0 0 0 255
-0.092100821 0.11924658 0.078237183 0 0 0 255
-0.091576971 0.11944468 0.078207165 0 0 0 255
-0.091111764 0.11961825 0.078067154 0 0 0 255
-0.090646565 0.11979184 0.077927142 0 0 0 255
-0.090181358 0.1199654 0.077787146 0 0 0 255
-0.089716151 0.12013898 0.077647135 0 0 0 255
-0.089309245 0.12028708 0.077397138 0 0 0 255
-0.088902339 0.12043517 0.077147149 0 0 0 255
-0.088495433 0.12058327 0.076897152 0 0 0 255
-0.088088535 0.12073137 0.076647162 0 0 0 255
-0.087681629 0.12087946 0.076397166 0 0 0 255
-0.08727473 0.12102756 0.076147176 0 0 0 255
-0.086926125 0.12115017 0.075787202 0 0 0 255
-0.086577527 0.1212728 0.075427212 0 0 0 255
-0.086228922 0.1213954 0.075067237 0 0 0 255
-0.08593896 0.1214935 0.074597269 0 0 0 255
-0.085590363 0.12161612 0.074237287 0 0 0 255
-0.085241757 0.12173875 0.073877312 0 0 0 255
-0.08495146 0.12183589 0.073407345 0 0 0 255
-0.084661022 0.12193415 0.072938249 0 0 0 255
-0.084370725 0.12203129 0.072468281 0 0 0 255
-0.084138721 0.12210297 0.071888328 0 0 0 255
-0.083907068 0.12217556 0.071308374 0 0 0 255
-0.083675057 0.12224723 0.070728421 0 0 0 255
-0.083501704 0.12229437 0.070038483 0 0 0 255
-0.083386645 0.12231603 0.069238558 0 0 0 255
-0.08327125 0.12233672 0.068438634 0 0 0 255
-0.083156191 0.12235838 0.06763871 0 0 0 255
-0.08304067 0.12238022 0.06683965 0 0 0 255
-0.083042212 0.12235092 0.065819755 0 0 0 255
-0.082810208 0.1224226 0.065239802 0 0 0 255
-0.082636848 0.12246972 0.064549863 0 0 0 255
-0.082346544 0.12256686 0.064079903 0 0 0 255
-0.08211489 0.12263946 0.06349995 0 0 0 255
-0.081824586 0.12273662 0.063029982 0 0 0 255
-0.081592463 0.1228094 0.062450897 0 0 0 255
-0.081302159 0.12290655 0.061980933 0 0 0 255
-0.081128463 0.12295274 0.061290994 0 0 0 255
-0.080896795 0.12302534 0.060711041 0 0 0 255
-0.08177308 0.12261596 0.058042221 0 0 0 255
-0.081366174 0.12276405 0.057792224 0 0 0 255
-0.081017569 0.12288669 0.057432249 0 0 0 255
-0.080727614 0.12298477 0.056962281 0 0 0 255
-0.080553912 0.12303095 0.056272343 0 0 0 255
-0.080322251 0.12310357 0.05569239 0 0 0 255
-0.080090255 0.12317523 0.055112436 0 0 0 255
-0.079916894 0.12322236 0.054422498 0 0 0 255
-0.079743534 0.1232695 0.053732559 0 0 0 255
-0.079686433 0.12326474 0.052822649 0 0 0 255
-0.079862759 0.12316015 0.051473662 0 0 0 255
-0.080448002 0.12287797 0.049353905 0 0 0 255
-0.080215529 0.12294979 0.048774816 0 0 0 255
-0.08015877 0.12294598 0.047864906 0 0 0 255
-0.082552239 0.12187798 0.042336442 0 0 0 255
-0.082203642 0.12200059 0.041976459 0 0 0 255
-0.082146421 0.12199695 0.041067418 0 0 0 255
-0.0822649 0.12191764 0.039827548 0 0 0 255
-0.082616605 0.12173644 0.038147733 0 0 0 255
-0.083609477 0.1212761 0.035258938 0 0 0 255
-0.083436117 0.12132323 0.034568999 0 0 0 255
-0.11462517 0.11101567 0.063199922 0 0 0 255
-0.11141699 0.11237592 0.06822753 0 0 0 255
-0.11083484 0.11259948 0.068307497 0 0 0 255
-0.10990254 0.112975 0.069047377 0 0 0 255
-0.10902889 0.11332597 0.069677278 0 0 0 255
-0.10827197 0.11362486 0.070086338 0 0 0 255
-0.10745662 0.11395036 0.070606247 0 0 0 255
-0.1060577 0.11452762 0.072225153 0 0 0 255
-0.10477524 0.11505502 0.073624954 0 0 0 255
-0.1037843 0.11545507 0.074474819 0 0 0 255
-0.10291111 0.11580585 0.075103849 0 0 0 255
-0.10203713 0.11615589 0.075733744 0 0 0 255
-0.10139668 0.11640494 0.075923696 0 0 0 255
-0.10069792 0.11667947 0.076223642 0 0 0 255
-0.099999174 0.11695402 0.076523572 0 0 0 255
-0.099359192 0.11720289 0.076712653 0 0 0 255
-0.09871874 0.11745197 0.076902606 0 0 0 255
-0.098136589 0.11767554 0.076982573 0 0 0 255
-0.097554445 0.11789913 0.07706254 0 0 0 255
-0.096972629 0.11812364 0.077142507 0 0 0 255
-0.096332192 0.11837271 0.077332452 0 0 0 255
-0.095750041 0.11859629 0.077412426 0 0 0 255
-0.095110059 0.11884518 0.077601507 0 0 0 255
-0.094586551 0.11904424 0.077571481 0 0 0 255
-0.0940044 0.11926781 0.077651456 0 0 0 255
-0.093422592 0.11949235 0.077731416 0 0 0 255
-0.09295705 0.11966498 0.077591412 0 0 0 255
-0.092316598 0.11991404 0.077781364 0 0 0 255
-0.091851398 0.12008762 0.077641353 0 0 0 255
-0.091386184 0.12026118 0.077501349 0 0 0 255
-0.090920985 0.12043475 0.077361345 0 0 0 255
-0.090514079 0.12058285 0.077111349 0 0 0 255
-0.090048872 0.12075642 0.076971337 0 0 0 255
-0.089641966 0.12090451 0.076721348 0 0 0 255
-0.089235067 0.12105261 0.076471359 0 0 0 255
-0.088769518 0.12122525 0.076331347 0 0 0 255
-0.088421255 0.1213488 0.075971365 0 0 0 255
-0.088014349 0.12149689 0.075721376 0 0 0 255
-0.087607443 0.12164499 0.075471386 0 0 0 255
-0.087258846 0.12176762 0.075111404 0 0 0 255
-0.08685194 0.12191571 0.074861407 0 0 0 255
-0.086503342 0.12203833 0.074501425 0 0 0 255
-0.086213037 0.12213548 0.074031465 0 0 0 255
-0.085864782 0.12225904 0.073671483 0 0 0 255
-0.085574478 0.12235617 0.073201522 0 0 0 255
-0.085284516 0.12245427 0.072731547 0 0 0 255
-0.084935911 0.12257688 0.072371572 0 0 0 255
-0.084703907 0.12264857 0.071791619 0 0 0 255
-0.084472254 0.12272116 0.071211666 0 0 0 255
-0.084181823 0.12281941 0.07074257 0 0 0 255
-0.08400812 0.12286562 0.070052631 0 0 0 255
-0.083834767 0.12291274 0.069362693 0 0 0 255
-0.083719708 0.1229344 0.068562768 0 0 0 255
-0.083546348 0.12298153 0.06787283 0 0 0 255
-0.083431289 0.12300317 0.067072906 0 0 0 255
-0.08331611 0.12302597 0.066273838 0 0 0 255
-0.083201051 0.12304761 0.065473929 0 0 0 255
-0.082969055 0.12311928 0.064893976 0 0 0 255
-0.082737401 0.12319189 0.064314023 0 0 0 255
-0.082447432 0.12328996 0.063844055 0 0 0 255
-0.082157128 0.12338712 0.063374087 0 0 0 255
-0.081925467 0.12345971 0.062794134 0 0 0 255
-0.081635177 0.12355688 0.062324166 0 0 0 255
-0.081345208 0.12365495 0.061854206 0 0 0 255
-0.081113204 0.12372664 0.061274253 0 0 0 255
-0.08093939 0.12377393 0.060585182 0 0 0 255
-0.081816815 0.12336625 0.057915486 0 0 0 255
-0.081409909 0.12351435 0.057665497 0 0 0 255
-0.081061304 0.12363696 0.057305515 0 0 0 255
-0.08082965 0.12370958 0.056725565 0 0 0 255
-0.08059752 0.12378235 0.05614648 0 0 0 255
-0.080365509 0.12385403 0.055566527 0 0 0 255
-0.080133855 0.12392665 0.054986574 0 0 0 255
-0.080018803 0.12394828 0.05418665 0 0 0 255
-0.079845443 0.12399542 0.053496711 0 0 0 255
-0.079672083 0.12404256 0.052806772 0 0 0 255
-0.080140263 0.12381151 0.050907854 0 0 0 255
-0.081017219 0.123404 0.04823903 0 0 0 255
-0.080726907 0.12350115 0.047769062 0 0 0 255
-0.081370793 0.12319443 0.04553932 0 0 0 255
-0.082831323 0.12253517 0.041771501 0 0 0 255
-0.082774565 0.12253135 0.040861588 0 0 0 255
-0.082717806 0.12252752 0.039951678 0 0 0 255
-0.083828315 0.12201906 0.036842912 0 0 0 255
-0.083946809 0.12193975 0.035603043 0 0 0 255
-0.083948694 0.12191139 0.034583144 0 0 0 255
-0.085233629 0.12132666 0.031145282 0 0 0 255
-0.11455388 0.11182272 0.063294031 0 0 0 255
-0.11151993 0.11310466 0.067991681 0 0 0 255
-0.11070424 0.11342922 0.06851159 0 0 0 255
-0.10988854 0.11375376 0.069031507 0 0 0 255
-0.10895637 0.11412814 0.069770522 0 0 0 255
-0.10819897 0.11442722 0.070180446 0 0 0 255
-0.10732497 0.11477725 0.070810333 0 0 0 255
-0.10604232 0.11530262 0.072209269 0 0 0 255
-0.10487647 0.11577907 0.073389105 0 0 0 255
-0.10411908 0.11607814 0.073799029 0 0 0 255
-0.10318691 0.11645254 0.074538037 0 0 0 255
-0.10237122 0.11677708 0.075057954 0 0 0 255
-0.10167246 0.11705162 0.075357892 0 0 0 255
-0.10091506 0.11735068 0.075767815 0 0 0 255
-0.10027508 0.11759958 0.075956896 0 0 0 255
-0.099692941 0.11782315 0.076036863 0 0 0 255
-0.098994188 0.11809769 0.076336801 0 0 0 255
-0.098470345 0.11829581 0.076306783 0 0 0 255
-0.097829886 0.11854486 0.076496735 0 0 0 255
-0.097247735 0.11876845 0.076576695 0 0 0 255
-0.096607283 0.11901751 0.076766647 0 0 0 255
-0.096025601 0.11924092 0.07684575 0 0 0 255
-0.095443457 0.11946452 0.076925717 0 0 0 255
-0.094861314 0.11968809 0.077005684 0 0 0 255
-0.094279163 0.11991168 0.077085644 0 0 0 255
-0.093755655 0.12011072 0.077055618 0 0 0 255
-0.093290105 0.12028334 0.076915622 0 0 0 255
-0.092707962 0.12050694 0.076995581 0 0 0 255
-0.092184447 0.12070598 0.076965556 0 0 0 255
-0.091719247 0.12087957 0.076825552 0 0 0 255
-0.091312349 0.12102766 0.076575562 0 0 0 255
-0.090846792 0.12120029 0.076435551 0 0 0 255
-0.090381593 0.12137388 0.076295547 0 0 0 255
-0.089974687 0.12152197 0.076045558 0 0 0 255
-0.08950948 0.12169552 0.075905547 0 0 0 255
-0.089102574 0.12184362 0.07565555 0 0 0 255
-0.088753976 0.12196626 0.075295568 0 0 0 255
-0.088347077 0.12211436 0.075045586 0 0 0 255
-0.087940171 0.12226246 0.074795589 0 0 0 255
-0.087591566 0.12238505 0.074435607 0 0 0 255
-0.08718466 0.12253315 0.07418561 0 0 0 255
-0.086836398 0.12265672 0.073825628 0 0 0 255
-0.086546093 0.12275385 0.073355667 0 0 0 255
-0.086197495 0.12287648 0.072995692 0 0 0 255
-0.085907541 0.12297457 0.072525725 0 0 0 255
-0.08561758 0.12307264 0.072055757 0 0 0 255
-0.085268974 0.12319528 0.071695775 0 0 0 255
-0.085037313 0.12326787 0.071115822 0 0 0 255
-0.084747009 0.12336501 0.070645861 0 0 0 255
-0.084515348 0.12343762 0.070065908 0 0 0 255
-0.084341526 0.12348492 0.069376834 0 0 0 255
-0.084168509 0.12353301 0.068686903 0 0 0 255
-0.083936512 0.12360467 0.068106949 0 0 0 255
-0.083821796 0.12362728 0.067307025 0 0 0 255
-0.083706737 0.12364892 0.066507101 0 0 0 255
-0.083533719 0.123697 0.065817162 0 0 0 255
-0.083360359 0.12374414 0.065127224 0 0 0 255
-0.083069593 0.12384145 0.06465812 0 0 0 255
-0.082837939 0.12391406 0.064078167 0 0 0 255
-0.082547978 0.12401214 0.063608207 0 0 0 255
-0.082199365 0.12413475 0.063248225 0 0 0 255
-0.081967711 0.12420737 0.062668271 0 0 0 255
-0.081619114 0.12432998 0.062308293 0 0 0 255
-0.081387453 0.12440259 0.061728343 0 0 0 255
-0.081155792 0.1244752 0.06114839 0 0 0 255
-0.081215516 0.12442153 0.060019374 0 0 0 255
-0.08186008 0.1241167 0.057789627 0 0 0 255
-0.081453174 0.12426481 0.057539634 0 0 0 255
-0.081162877 0.12436195 0.057069667 0 0 0 255
-0.080872908 0.12446003 0.056599706 0 0 0 255
-0.080699086 0.12450735 0.055910632 0 0 0 255
-0.080467418 0.12457994 0.055330679 0 0 0 255
-0.080235764 0.12465256 0.054750726 0 0 0 255
-0.080237649 0.12462419 0.053730831 0 0 0 255
-0.080005988 0.12469682 0.053150877 0 0 0 255
-0.080066189 0.12464298 0.052020993 0 0 0 255
-0.081877545 0.12383369 0.047593258 0 0 0 255
-0.081528939 0.12395629 0.047233276 0 0 0 255
-0.081472524 0.12395342 0.046323366 0 0 0 255
-0.083576068 0.12301859 0.041345701 0 0 0 255
-0.083402723 0.12306574 0.040655762 0 0 0 255
-0.083462909 0.1230119 0.039525878 0 0 0 255
-0.084281906 0.12263081 0.036967039 0 0 0 255
-0.084283799 0.12260245 0.035947144 0 0 0 255
-0.084519103 0.12247425 0.034488171 0 0 0 255
-0.085163325 0.12216848 0.032258421 0 0 0 255
-0.08510644 0.12216576 0.03134938 0 0 0 255
-0.084991388 0.12218742 0.030549454 0 0 0 255
-0.11220501 0.11360982 0.067675866 0 0 0 255
-0.11162286 0.11383339 0.067755833 0 0 0 255
-0.11074851 0.11418249 0.068385728 0 0 0 255
-0.10981555 0.1145561 0.069125615 0 0 0 255
-0.10900033 0.11488049 0.06964466 0 0 0 255
-0.10830122 0.11515407 0.06994459 0 0 0 255
-0.10736858 0.11552865 0.070684478 0 0 0 255
-0.10614423 0.11602853 0.071973428 0 0 0 255
-0.10503599 0.11647763 0.073043272 0 0 0 255
-0.10433771 0.11675198 0.073342338 0 0 0 255
-0.10346338 0.1171011 0.073972233 0 0 0 255
-0.10264735 0.11742468 0.074492142 0 0 0 255
-0.10200689 0.11767375 0.074682102 0 0 0 255
-0.10124996 0.11797265 0.075091153 0 0 0 255
-0.10055087 0.11824624 0.075391084 0 0 0 255
-0.099968717 0.11846983 0.075471058 0 0 0 255
-0.099327922 0.11871795 0.075661004 0 0 0 255
-0.098745778 0.11894155 0.075740971 0 0 0 255
-0.098163627 0.11916511 0.075820938 0 0 0 255
-0.097523183 0.11941418 0.07601089 0 0 0 255
-0.096882395 0.11966232 0.076200843 0 0 0 255
-0.096359007 0.11986023 0.076169953 0 0 0 255
-0.095776856 0.12008382 0.07624992 0 0 0 255
-0.095194712 0.1203074 0.076329887 0 0 0 255
-0.094612554 0.12053101 0.076409847 0 0 0 255
-0.094088718 0.1207291 0.076379828 0 0 0 255
-0.093623511 0.12090267 0.076239824 0 0 0 255
-0.093099669 0.12110079 0.076209798 0 0 0 255
-0.092576161 0.12129983 0.076179788 0 0 0 255
-0.092110611 0.12147247 0.076039776 0 0 0 255
-0.091586761 0.12167057 0.07600975 0 0 0 255
-0.091121554 0.12184414 0.075869739 0 0 0 255
-0.090714648 0.12199223 0.07561975 0 0 0 255
-0.09030775 0.12214033 0.07536976 0 0 0 255
-0.089842543 0.12231392 0.075229749 0 0 0 255
-0.089435644 0.12246202 0.074979752 0 0 0 255
-0.089028738 0.12261011 0.074729763 0 0 0 255
-0.088680126 0.12273271 0.074369788 0 0 0 255
-0.088273227 0.12288081 0.074119791 0 0 0 255
-0.087924622 0.12300344 0.073759809 0 0 0 255
-0.087576367 0.12312698 0.073399834 0 0 0 255
-0.087227762 0.12324962 0.07303986 0 0 0 255
-0.086879507 0.12337318 0.072679877 0 0 0 255
-0.086530894 0.12349579 0.072319895 0 0 0 255
-0.08624094 0.12359388 0.071849927 0 0 0 255
-0.085892335 0.1237165 0.071489945 0 0 0 255
-0.085602373 0.12381458 0.071019985 0 0 0 255
-0.085312076 0.12391172 0.070550025 0 0 0 255
-0.085080758 0.12398528 0.069970071 0 0 0 255
-0.084849097 0.12405789 0.069390118 0 0 0 255
-0.084617436 0.12413051 0.068810165 0 0 0 255
-0.084443614 0.12417778 0.068121091 0 0 0 255
-0.084270597 0.12422588 0.067431152 0 0 0 255
-0.084097236 0.124273 0.066741213 0 0 0 255
-0.083924219 0.12432107 0.066051275 0 0 0 255
-0.083750866 0.12436821 0.065361336 0 0 0 255
-0.083460897 0.12446629 0.064891368 0 0 0 255
-0.083170608 0.12456343 0.064421408 0 0 0 255
-0.082939282 0.12463698 0.063841455 0 0 0 255
-0.082590207 0.12475977 0.063482344 0 0 0 255
-0.082300253 0.12485786 0.063012376 0 0 0 255
-0.082009949 0.124955 0.062542409 0 0 0 255
-0.081719987 0.12505308 0.062072441 0 0 0 255
-0.081488326 0.12512569 0.061492492 0 0 0 255
-0.081315324 0.12517378 0.060802557 0 0 0 255
-0.081434146 0.1250954 0.059562683 0 0 0 255
-0.081961647 0.1248417 0.057553776 0 0 0 255
-0.081554741 0.12498979 0.057303783 0 0 0 255
-0.081264436 0.12508693 0.056833819 0 0 0 255
-0.081091419 0.125135 0.05614388 0 0 0 255
-0.080859758 0.1252076 0.055563927 0 0 0 255
-0.080628105 0.12528022 0.054983981 0 0 0 255
-0.080512919 0.125303 0.054184921 0 0 0 255
-0.08045651 0.12530011 0.053275008 0 0 0 255
-0.080283143 0.12534723 0.052585069 0 0 0 255
-0.081336722 0.12486801 0.049586289 0 0 0 255
-0.082389951 0.12438783 0.046587504 0 0 0 255
-0.081924409 0.12456048 0.046447501 0 0 0 255
-0.081751391 0.12460854 0.045757562 0 0 0 255
-0.083855622 0.12367561 0.040779892 0 0 0 255
-0.084325284 0.1234472 0.038880106 0 0 0 255
-0.084618889 0.12329352 0.037311144 0 0 0 255
-0.084679425 0.12324063 0.03618126 0 0 0 255
-0.08468084 0.12321244 0.035162229 0 0 0 255
-0.085325748 0.12290856 0.032932483 0 0 0 255
-0.085210562 0.12293132 0.032133427 0 0 0 255
-0.085037217 0.12297846 0.031443492 0 0 0 255
-0.084980801 0.12297558 0.030533578 0 0 0 255
-0.084924728 0.12297364 0.029623667 0 0 0 255
-0.084868312 0.12297077 0.028713755 0 0 0 255
-0.11230795 0.11433855 0.067440018 0 0 0 255
-0.11155021 0.1146367 0.067849949 0 0 0 255
-0.11067587 0.11498579 0.068479843 0 0 0 255
-0.10980166 0.11533375 0.069108874 0 0 0 255
-0.10910256 0.11560734 0.069408804 0 0 0 255
-0.10834517 0.1159064 0.069818728 0 0 0 255
-0.10735355 0.11630458 0.0706686 0 0 0 255
-0.10630444 0.11672896 0.071627587 0 0 0 255
-0.10537146 0.11710259 0.072367474 0 0 0 255
-0.10449724 0.11745057 0.072996505 0 0 0 255
-0.10373984 0.11774963 0.073406428 0 0 0 255
-0.1029821 0.11804777 0.073816344 0 0 0 255
-0.10222437 0.1183459 0.074226275 0 0 0 255
-0.10158439 0.11859478 0.074415356 0 0 0 255
-0.10094361 0.11884291 0.074605316 0 0 0 255
-0.10030282 0.11909103 0.074795261 0 0 0 255
-0.099662021 0.11933915 0.074985221 0 0 0 255
-0.099079862 0.11956275 0.075065181 0 0 0 255
-0.098497719 0.11978631 0.07514514 0 0 0 255
-0.097856924 0.12003444 0.0753351 0 0 0 255
-0.097216591 0.1202824 0.075524181 0 0 0 255
-0.096693099 0.12048143 0.075494163 0 0 0 255
-0.096052311 0.12072957 0.075684115 0 0 0 255
-0.09547016 0.12095315 0.075764075 0 0 0 255
-0.09494631 0.12115125 0.075734057 0 0 0 255
-0.09442246 0.12134937 0.075704038 0 0 0 255
-0.093898609 0.12154748 0.075674012 0 0 0 255
-0.093374759 0.12174559 0.075643994 0 0 0 255
-0.09290956 0.12191915 0.07550399 0 0 0 255
-0.092444018 0.12209179 0.075363979 0 0 0 255
-0.091978803 0.12226536 0.075223967 0 0 0 255
-0.091513261 0.122438 0.075083971 0 0 0 255
-0.091048054 0.12261156 0.07494396 0 0 0 255
-0.090641148 0.12275966 0.074693963 0 0 0 255
-0.090176076 0.12293212 0.074553087 0 0 0 255
-0.089827344 0.12305585 0.074193977 0 0 0 255
-0.089362264 0.12322831 0.074053109 0 0 0 255
-0.088955358 0.12337641 0.073803112 0 0 0 255
-0.088606633 0.12350014 0.073443994 0 0 0 255
-0.088316672 0.12359823 0.072974026 0 0 0 255
-0.087909766 0.12374632 0.072724037 0 0 0 255
-0.08756116 0.12386893 0.072364062 0 0 0 255
-0.087212898 0.12399249 0.07200408 0 0 0 255
-0.0868643 0.12411512 0.071644098 0 0 0 255
-0.086574338 0.1242132 0.071174137 0 0 0 255
-0.086225741 0.12433583 0.070814162 0 0 0 255
-0.085935779 0.12443391 0.070344195 0 0 0 255
-0.085645817 0.12453198 0.069874227 0 0 0 255
-0.085355856 0.12463009 0.069404259 0 0 0 255
-0.085182838 0.12467813 0.068714321 0 0 0 255
-0.084951177 0.12475076 0.068134367 0 0 0 255
-0.084777698 0.124799 0.067445301 0 0 0 255
-0.084546044 0.12487161 0.066865347 0 0 0 255
-0.084314384 0.12494422 0.066285387 0 0 0 255
-0.084141359 0.12499228 0.065595455 0 0 0 255
-0.083909705 0.12506491 0.065015502 0 0 0 255
-0.083619744 0.12516297 0.064545535 0 0 0 255
-0.083329782 0.12526107 0.064075574 0 0 0 255
-0.083039828 0.12535915 0.063605607 0 0 0 255
-0.082691215 0.12548177 0.063245624 0 0 0 255
-0.082401268 0.12557985 0.062775657 0 0 0 255
-0.082110837 0.12567812 0.062306561 0 0 0 255
-0.081820875 0.1257762 0.061836593 0 0 0 255
-0.081589215 0.12584879 0.061256647 0 0 0 255
-0.081416197 0.12589687 0.060566701 0 0 0 255
-0.082353175 0.1254686 0.057787895 0 0 0 255
-0.082063213 0.12556668 0.057317927 0 0 0 255
-0.081714608 0.12568928 0.056957953 0 0 0 255
-0.081424654 0.12578739 0.056487985 0 0 0 255
-0.081251629 0.12583545 0.055798046 0 0 0 255
-0.081078619 0.12588353 0.055108108 0 0 0 255
-0.080846958 0.12595613 0.054528154 0 0 0 255
-0.080790073 0.12595342 0.053619109 0 0 0 255
-0.0807923 0.12592602 0.052599214 0 0 0 255
-0.080794878 0.12589954 0.051579319 0 0 0 255
-0.08295878 0.1249449 0.046491664 0 0 0 255
-0.082493231 0.12511751 0.046351656 0 0 0 255
-0.08226157 0.12519014 0.045771703 0 0 0 255
-0.084074982 0.12438645 0.041343968 0 0 0 255
-0.084953308 0.12398271 0.038675144 0 0 0 255
-0.084838942 0.12400626 0.03787522 0 0 0 255
-0.085016415 0.12390336 0.036525361 0 0 0 255
-0.085018173 0.12387609 0.035506334 0 0 0 255
-0.08531259 0.12372317 0.033936504 0 0 0 255
-0.085431293 0.12364593 0.032697499 0 0 0 255
-0.085199639 0.12371852 0.032117549 0 0 0 255
-0.085084923 0.12374114 0.031317625 0 0 0 255
-0.084911905 0.12378921 0.030627687 0 0 0 255
-0.084914133 0.12376178 0.029607791 0 0 0 255
-0.084682472 0.1238344 0.029027838 0 0 0 255
-0.084571391 0.12385673 0.028221853 0 0 0 255
-0.084413752 0.12390028 0.0275042 0 0 0 255
-0.11328509 0.11471933 0.06657514 0 0 0 255
-0.11241088 0.1150673 0.06720417 0 0 0 255
-0.11159484 0.1153909 0.067724079 0 0 0 255
-0.11083711 0.11568905 0.06813401 0 0 0 255
-0.10990426 0.11606155 0.068873025 0 0 0 255
-0.10914652 0.11635968 0.069282949 0 0 0 255
-0.10838878 0.11665783 0.069692865 0 0 0 255
-0.10745627 0.11703126 0.070431888 0 0 0 255
-0.106406 0.11745396 0.071391739 0 0 0 255
-0.10564826 0.11775208 0.071801662 0 0 0 255
-0.10471576 0.11812554 0.072540678 0 0 0 255
-0.10401633 0.11839819 0.072840616 0 0 0 255
-0.10337552 0.11864631 0.073030576 0 0 0 255
-0.10255949 0.11896992 0.073550478 0 0 0 255
-0.10191917 0.11921787 0.073739566 0 0 0 255
-0.10127836 0.119466 0.073929518 0 0 0 255
-0.10063724 0.11971317 0.074119464 0 0 0 255
-0.099996448 0.11996131 0.074309424 0 0 0 255
-0.099414296 0.12018487 0.074389391 0 0 0 255
-0.09883181 0.12040752 0.074469358 0 0 0 255
-0.098191485 0.12065547 0.074658439 0 0 0 255
-0.09755069 0.12090358 0.074848384 0 0 0 255
-0.09702684 0.1211017 0.074818373 0 0 0 255
-0.096386045 0.12134983 0.075008318 0 0 0 255
-0.095803902 0.12157342 0.075088277 0 0 0 255
-0.095221415 0.12179604 0.075168252 0 0 0 255
-0.094756208 0.12196961 0.075028241 0 0 0 255
-0.094290659 0.12214226 0.074888237 0 0 0 255
-0.093766809 0.12234037 0.074858218 0 0 0 255
-0.093242958 0.12253845 0.074828193 0 0 0 255
-0.092719577 0.12273641 0.074797302 0 0 0 255
-0.092312679 0.12288451 0.074547313 0 0 0 255
-0.091847472 0.12305807 0.074407309 0 0 0 255
-0.091440573 0.12320617 0.074157313 0 0 0 255
-0.090975024 0.12337882 0.074017301 0 0 0 255
-0.090568125 0.12352692 0.073767312 0 0 0 255
