ply
format ascii 1.0
comment PCL generated
element vertex 1108
property float x
property float y
property float z
property uchar red
property uchar green
property uchar blue
property uchar alpha
element camera 0
property float view_px
property float view_py
property float view_pz
property float x_axisx
property float x_axisy
property float x_axisz
property float y_axisx
property float y_axisy
property float y_axisz
property float z_axisx
property float z_axisy
property float z_axisz
property float focal
property float scalex
property float scaley
property float centerx
property float centery
property int viewportx
property int viewporty
property float k1
property float k2
end_header
0.48010409 0.43844521 0.61146265 0 0 0 255
0.22435771 0.31131318 0.77534372 0 0 0 255
0.3148194 0.35609281 0.71748513 0 0 0 255
0.48300952 0.39786357 0.61805826 0 0 0 255
0.24483183 0.3726019 0.75228101 0 0 0 255
0.4437702 0.39020315 0.64090925 0 0 0 255
0.19615182 0.29530871 0.79408169 0 0 0 255
0.3566235 0.37119925 0.6921494 0 0 0 255
0.40657118 0.42860311 0.65373713 0 0 0 255
0.37936887 0.42208979 0.66978753 0 0 0 255
0.29072595 0.3942661 0.7233898 0 0 0 255
0.25931621 0.37970182 0.74331558 0 0 0 255
0.40395111 0.38276878 0.66425747 0 0 0 255
0.15603019 0.31786531 0.81165099 0 0 0 255
0.35450187 0.41592413 0.68462747 0 0 0 255
0.39378893 0.38032478 0.6703769 0 0 0 255
0.34465247 0.4135223 0.69047934 0 0 0 255
0.4047353 0.4284308 0.6550411 0 0 0 255
0.46817684 0.43772975 0.61879808 0 0 0 255
0.28113389 0.34145534 0.73931152 0 0 0 255
0.22786163 0.31350619 0.77384198 0 0 0 255
0.24938923 0.32587776 0.75993329 0 0 0 255
0.38455185 0.37822714 0.67634153 0 0 0 255
0.16302785 0.30716237 0.81056702 0 0 0 255
0.22825319 0.36486056 0.76386261 0 0 0 255
0.2360874 0.31833434 0.76880646 0 0 0 255
0.32795197 0.40802574 0.70131695 0 0 0 255
0.44286072 0.39040071 0.64247793 0 0 0 255
0.29612356 0.39645243 0.72091281 0 0 0 255
0.23384804 0.31706539 0.77039158 0 0 0 255
0.38849518 0.37926957 0.67427236 0 0 0 255
0.28035888 0.34122947 0.7404924 0 0 0 255
0.26601687 0.3832548 0.73999655 0 0 0 255
0.48834538 0.4289448 0.61040086 0 0 0 255
0.43091202 0.38839895 0.64965993 0 0 0 255
0.24156144 0.32158259 0.76562184 0 0 0 255
0.19648713 0.29587543 0.79516256 0 0 0 255
0.25797865 0.33024576 0.75502485 0 0 0 255
0.28981736 0.34594211 0.73466063 0 0 0 255
0.18291764 0.28899693 0.80396545 0 0 0 255
0.36701292 0.41950575 0.67843699 0 0 0 255
0.46286973 0.43782869 0.62285656 0 0 0 255
0.21483567 0.30620706 0.78344899 0 0 0 255
0.18533005 0.29031155 0.80263805 0 0 0 255
0.1818897 0.28858766 0.80492181 0 0 0 255
0.30739254 0.40074363 0.71470737 0 0 0 255
0.45147645 0.39218313 0.63828987 0 0 0 255
0.20605195 0.30118853 0.78947252 0 0 0 255
0.42159212 0.43181291 0.64676869 0 0 0 255
0.17314893 0.29189369 0.80918056 0 0 0 255
0.36361253 0.37343824 0.68975288 0 0 0 255
0.40840364 0.38439995 0.66339558 0 0 0 255
0.46084741 0.43791845 0.62450218 0 0 0 255
0.26535118 0.33406195 0.75110614 0 0 0 255
0.29885784 0.39775503 0.72039622 0 0 0 255
0.22153723 0.31021076 0.77967775 0 0 0 255
0.34574509 0.41443947 0.69179076 0 0 0 255
0.41487426 0.43094113 0.65104419 0 0 0 255
0.24481416 0.32369107 0.76457024 0 0 0 255
0.37893736 0.37733832 0.68122083 0 0 0 255
0.47280067 0.39666697 0.62650013 0 0 0 255
0.4895919 0.42346674 0.61211795 0 0 0 255
0.24705771 0.32500374 0.76317716 0 0 0 255
0.40033078 0.38258222 0.66865879 0 0 0 255
0.4906565 0.41634274 0.6130653 0 0 0 255
0.46332297 0.39456859 0.63223195 0 0 0 255
0.30737141 0.35411295 0.72482669 0 0 0 255
0.24705483 0.32503071 0.76331401 0 0 0 255
0.28372383 0.34324691 0.73991328 0 0 0 255
0.21317199 0.35632542 0.77567637 0 0 0 255
0.26316926 0.33313951 0.75317407 0 0 0 255
0.45802557 0.43798888 0.62680566 0 0 0 255
0.28916848 0.39447051 0.7270686 0 0 0 255
0.32659584 0.36120155 0.71336246 0 0 0 255
0.34532776 0.36802602 0.70187974 0 0 0 255
0.31428736 0.40364188 0.71171874 0 0 0 255
0.29238296 0.34760585 0.73476994 0 0 0 255
0.17488514 0.29033923 0.80985451 0 0 0 255
0.20460205 0.35128552 0.78172398 0 0 0 255
0.27362669 0.33837429 0.74683315 0 0 0 255
0.17805588 0.33553523 0.7993809 0 0 0 255
0.18423314 0.29040682 0.80503595 0 0 0 255
0.216519 0.35851732 0.77409869 0 0 0 255
0.40424025 0.42955425 0.65823603 0 0 0 255
0.24252006 0.37260637 0.75722277 0 0 0 255
0.4476614 0.43673009 0.63333124 0 0 0 255
0.44464445 0.39160308 0.64389879 0 0 0 255
0.17261285 0.29440063 0.81071043 0 0 0 255
0.25979084 0.33164963 0.75610566 0 0 0 255
0.28837675 0.34575236 0.73786557 0 0 0 255
0.31579056 0.3574633 0.72073662 0 0 0 255
0.31268302 0.4032959 0.71338022 0 0 0 255
0.29522333 0.34914947 0.73358202 0 0 0 255
0.16162364 0.31247878 0.81350213 0 0 0 255
0.35363102 0.37129804 0.6977244 0 0 0 255
0.42600244 0.38846201 0.65512019 0 0 0 255
0.19052589 0.29383588 0.80157298 0 0 0 255
0.4264527 0.38855267 0.65488368 0 0 0 255
0.37074357 0.37582842 0.68765086 0 0 0 255
0.398045 0.38249546 0.67153841 0 0 0 255
0.49142408 0.40171281 0.61709714 0 0 0 255
0.47533098 0.44020635 0.61829668 0 0 0 255
0.27590814 0.33972234 0.74635375 0 0 0 255
0.41244248 0.38606009 0.66319996 0 0 0 255
0.35424528 0.37159768 0.69763499 0 0 0 255
0.49128485 0.41640198 0.61453003 0 0 0 255
0.33240521 0.36371297 0.71129555 0 0 0 255
0.33676225 0.36531505 0.70868039 0 0 0 255
0.25230399 0.37770507 0.75210148 0 0 0 255
0.31427258 0.35714227 0.72254503 0 0 0 255
0.49157637 0.40201008 0.61755633 0 0 0 255
0.25484365 0.37896425 0.75057358 0 0 0 255
0.44119444 0.39146751 0.64701402 0 0 0 255
0.25701877 0.33053476 0.75898325 0 0 0 255
0.30085993 0.3522003 0.73101532 0 0 0 255
0.36241993 0.41961795 0.68431306 0 0 0 255
0.34168231 0.41423976 0.69666922 0 0 0 255
0.33815515 0.41299039 0.69893396 0 0 0 255
0.48846245 0.4378337 0.61253542 0 0 0 255
0.42665887 0.38904622 0.65582854 0 0 0 255
0.45087749 0.43805182 0.63314366 0 0 0 255
0.49260882 0.40984762 0.61619771 0 0 0 255
0.32185948 0.36012059 0.71870494 0 0 0 255
0.38981366 0.4267773 0.66868514 0 0 0 255
0.3288103 0.36265942 0.71446866 0 0 0 255
0.1976679 0.34776133 0.78855968 0 0 0 255
0.33727938 0.41285467 0.69999176 0 0 0 255
0.19207746 0.34443343 0.79236376 0 0 0 255
0.48277026 0.40042862 0.62368786 0 0 0 255
0.20499557 0.30184236 0.79391778 0 0 0 255
0.27581578 0.38945234 0.73823452 0 0 0 255
0.45316803 0.43867442 0.63235474 0 0 0 255
0.28348565 0.34383434 0.7431584 0 0 0 255
0.37998086 0.37866876 0.68409729 0 0 0 255
0.35470569 0.41813052 0.69002557 0 0 0 255
0.22725117 0.31467599 0.77964014 0 0 0 255
0.33771703 0.36606473 0.70961553 0 0 0 255
0.21696116 0.30884504 0.78653526 0 0 0 255
0.19467205 0.34618732 0.79133284 0 0 0 255
0.24072216 0.32246152 0.77104801 0 0 0 255
0.19453754 0.29673636 0.80121517 0 0 0 255
0.21285945 0.30657074 0.78942645 0 0 0 255
0.31936568 0.40667185 0.71195453 0 0 0 255
0.41932914 0.38838735 0.66158307 0 0 0 255
0.4000403 0.38391104 0.67299432 0 0 0 255
0.46528906 0.39683831 0.63505828 0 0 0 255
0.17279939 0.33300355 0.80645108 0 0 0 255
0.26671523 0.33592254 0.75502253 0 0 0 255
0.19007348 0.29471841 0.80474532 0 0 0 255
0.30454868 0.3542349 0.73090965 0 0 0 255
0.39311177 0.42824286 0.66830087 0 0 0 255
0.1634185 0.31270131 0.81576943 0 0 0 255
0.22702661 0.31493831 0.78090394 0 0 0 255
0.27982792 0.34234253 0.74686456 0 0 0 255
0.29189026 0.39694795 0.72961873 0 0 0 255
0.25228056 0.32906404 0.76462662 0 0 0 255
0.36357674 0.37511116 0.69523406 0 0 0 255
0.39889026 0.38390297 0.6743753 0 0 0 255
0.20872362 0.30458418 0.79321814 0 0 0 255
0.37330243 0.42341644 0.6804722 0 0 0 255
0.29113144 0.34798986 0.73996234 0 0 0 255
0.32914859 0.36332759 0.71632326 0 0 0 255
0.42336044 0.38949639 0.66015762 0 0 0 255
0.35690424 0.3734768 0.69944954 0 0 0 255
0.19967277 0.34962407 0.78954351 0 0 0 255
0.26231056 0.38359731 0.74895465 0 0 0 255
0.31180099 0.35713682 0.7274465 0 0 0 255
0.28753099 0.39562631 0.73304945 0 0 0 255
0.31662726 0.40622008 0.71518451 0 0 0 255
0.23033769 0.36812124 0.76953006 0 0 0 255
0.26080823 0.33344075 0.75995404 0 0 0 255
0.28577384 0.34552833 0.74403781 0 0 0 255
0.25471273 0.33050039 0.76387358 0 0 0 255
0.49305454 0.41419709 0.61815149 0 0 0 255
0.30593491 0.40241927 0.72201133 0 0 0 255
0.35856271 0.4200795 0.6901592 0 0 0 255
0.20854186 0.30483121 0.79434031 0 0 0 255
0.32263598 0.3612487 0.72142684 0 0 0 255
0.2074191 0.35452628 0.78529352 0 0 0 255
0.18861565 0.29461876 0.80734634 0 0 0 255
0.48921502 0.44208044 0.61515713 0 0 0 255
0.21919379 0.36167967 0.77778715 0 0 0 255
0.34768993 0.37045503 0.7063663 0 0 0 255
0.46837997 0.39862761 0.63542831 0 0 0 255
0.25740603 0.3816244 0.75332111 0 0 0 255
0.20362607 0.30237821 0.79815918 0 0 0 255
0.47768873 0.40086704 0.63005584 0 0 0 255
0.44389912 0.39381862 0.64980179 0 0 0 255
0.39975756 0.38481012 0.67556691 0 0 0 255
0.30370057 0.35451624 0.73366308 0 0 0 255
0.18554939 0.29328278 0.80990088 0 0 0 255
0.23984116 0.32299381 0.77458668 0 0 0 255
0.28925213 0.34757292 0.74293154 0 0 0 255
0.25494465 0.33099893 0.7649163 0 0 0 255
0.43287325 0.39194387 0.65639925 0 0 0 255
0.17653155 0.29393575 0.8148334 0 0 0 255
0.1662111 0.31058896 0.81718844 0 0 0 255
0.35476539 0.37318456 0.70260328 0 0 0 255
0.24849856 0.32788271 0.76920384 0 0 0 255
0.31272003 0.35791591 0.72853202 0 0 0 255
0.21787384 0.31056774 0.78936893 0 0 0 255
0.48939607 0.44351554 0.61587369 0 0 0 255
0.49188912 0.40442768 0.62228513 0 0 0 255
0.40563518 0.43242601 0.66359144 0 0 0 255
0.27261454 0.33969307 0.75407952 0 0 0 255
0.25639465 0.33184361 0.7644316 0 0 0 255
0.30880061 0.40401715 0.72182649 0 0 0 255
0.25597763 0.33166859 0.76478028 0 0 0 255
0.44864139 0.43992025 0.63900453 0 0 0 255
0.33045673 0.36450845 0.71802473 0 0 0 255
0.20231257 0.35185802 0.79007149 0 0 0 255
0.23600385 0.32110325 0.77796924 0 0 0 255
0.37774721 0.37962961 0.68954122 0 0 0 255
0.49496883 0.40588433 0.62080979 0 0 0 255
0.38975075 0.42868051 0.67348289 0 0 0 255
0.38815752 0.38233092 0.68355399 0 0 0 255
0.41409039 0.38888317 0.66820061 0 0 0 255
0.33741927 0.41460028 0.70471835 0 0 0 255
0.24615139 0.32698199 0.77164984 0 0 0 255
0.48352152 0.4028244 0.62790054 0 0 0 255
0.30120617 0.35375112 0.73651415 0 0 0 255
0.42960548 0.43710071 0.65040165 0 0 0 255
0.17809181 0.29251963 0.81541622 0 0 0 255
0.18179241 0.29185852 0.81358141 0 0 0 255
0.21743442 0.31062675 0.79054385 0 0 0 255
0.32933098 0.36428612 0.71924907 0 0 0 255
0.2959727 0.35124272 0.73992902 0 0 0 255
0.23848175 0.32269233 0.77683765 0 0 0 255
0.20206508 0.30222258 0.80072021 0 0 0 255
0.29525545 0.3509551 0.74057007 0 0 0 255
0.18811131 0.34406081 0.80007553 0 0 0 255
0.15966436 0.32254127 0.8198657 0 0 0 255
0.17486539 0.33577156 0.8091144 0 0 0 255
0.45841688 0.39716792 0.6431669 0 0 0 255
0.28232101 0.34477785 0.74907887 0 0 0 255
0.46424675 0.39849082 0.63985026 0 0 0 255
0.36674178 0.37721202 0.69695657 0 0 0 255
0.36902249 0.37780011 0.69563568 0 0 0 255
0.34064442 0.3686142 0.71289653 0 0 0 255
0.18134624 0.34024832 0.80503237 0 0 0 255
0.33037308 0.41236162 0.70997286 0 0 0 255
0.19284388 0.29777238 0.80721921 0 0 0 255
0.45564297 0.44166347 0.63626438 0 0 0 255
0.47588652 0.40147901 0.6332705 0 0 0 255
0.28000522 0.39334023 0.74130231 0 0 0 255
0.28870937 0.39728704 0.73582363 0 0 0 255
0.41318527 0.38913211 0.66992015 0 0 0 255
0.37775606 0.3801901 0.69091952 0 0 0 255
0.20056653 0.30183029 0.80258012 0 0 0 255
0.39526594 0.38465369 0.68065077 0 0 0 255
0.35013852 0.37225267 0.70758384 0 0 0 255
0.26967919 0.38839978 0.74806774 0 0 0 255
0.41181731 0.43451118 0.66186416 0 0 0 255
0.49457544 0.41254035 0.62131429 0 0 0 255
0.37663373 0.37996933 0.6917395 0 0 0 255
0.49300241 0.42361933 0.62003189 0 0 0 255
0.45423955 0.39679444 0.64645118 0 0 0 255
0.16953936 0.30770195 0.81856281 0 0 0 255
0.27320272 0.39019316 0.74609119 0 0 0 255
0.41874951 0.43606734 0.65808272 0 0 0 255
0.16372338 0.32834345 0.81777203 0 0 0 255
0.19869176 0.30106378 0.80427235 0 0 0 255
0.39059016 0.38365665 0.68387592 0 0 0 255
0.49241102 0.42885482 0.61977708 0 0 0 255
0.39906406 0.38584778 0.67898333 0 0 0 255
0.17475431 0.29969487 0.81772357 0 0 0 255
0.40774983 0.43390292 0.66482776 0 0 0 255
0.48993391 0.40517581 0.62594908 0 0 0 255
0.39955389 0.43196961 0.66969383 0 0 0 255
0.49241346 0.42933968 0.61988568 0 0 0 255
0.41053024 0.38881105 0.67235875 0 0 0 255
0.2956295 0.40012664 0.73248357 0 0 0 255
0.4229089 0.39146948 0.66520357 0 0 0 255
0.43168545 0.43841231 0.65121949 0 0 0 255
0.48099735 0.40324441 0.63148737 0 0 0 255
0.49040225 0.44439948 0.6183818 0 0 0 255
0.30968645 0.35792983 0.73357373 0 0 0 255
0.3059009 0.40400064 0.72655821 0 0 0 255
0.34852213 0.37208453 0.7097711 0 0 0 255
0.48956737 0.44589591 0.61874831 0 0 0 255
0.37602901 0.4262799 0.68425196 0 0 0 255
0.23983863 0.37438267 0.76842099 0 0 0 255
0.2619366 0.38509816 0.75438356 0 0 0 255
0.33366278 0.36675632 0.71912771 0 0 0 255
0.47305068 0.40163612 0.63665533 0 0 0 255
0.49513537 0.40675786 0.62368464 0 0 0 255
0.288129 0.3483029 0.74757379 0 0 0 255
0.49090594 0.40580881 0.6262325 0 0 0 255
0.40776429 0.38843286 0.67479104 0 0 0 255
0.2776542 0.34327155 0.75437576 0 0 0 255
0.18939473 0.34566337 0.80180258 0 0 0 255
0.48385721 0.40423766 0.63050085 0 0 0 255
0.45985913 0.39845431 0.64472967 0 0 0 255
0.2656574 0.33750069 0.76213992 0 0 0 255
0.23452084 0.32141253 0.78224897 0 0 0 255
0.34894037 0.37249267 0.71024162 0 0 0 255
0.37430662 0.42610234 0.68591076 0 0 0 255
0.22301742 0.31494722 0.79010922 0 0 0 255
0.4309527 0.39347169 0.66186869 0 0 0 255
0.35455921 0.37462497 0.70703751 0 0 0 255
0.16739582 0.31313375 0.82074165 0 0 0 255
0.27350748 0.34148172 0.75769085 0 0 0 255
0.29282194 0.35083178 0.74537325 0 0 0 255
0.37027547 0.37928233 0.69778252 0 0 0 255
0.19740252 0.30118531 0.80711544 0 0 0 255
0.22908655 0.3691279 0.7765258 0 0 0 255
0.48038736 0.40391862 0.63355386 0 0 0 255
0.44457564 0.39614883 0.65455776 0 0 0 255
0.1739765 0.33628064 0.81318671 0 0 0 255
0.4101994 0.38953212 0.67454892 0 0 0 255
0.21372375 0.35999218 0.78701246 0 0 0 255
0.37857938 0.38160115 0.69341338 0 0 0 255
0.49397552 0.42424479 0.62241346 0 0 0 255
0.48133564 0.44605193 0.62504816 0 0 0 255
0.30553535 0.35709089 0.73803401 0 0 0 255
0.29571024 0.40097031 0.7347464 0 0 0 255
0.2324547 0.32069081 0.78491688 0 0 0 255
0.37017536 0.42555064 0.68957734 0 0 0 255
0.46756929 0.40101057 0.64160717 0 0 0 255
0.21596809 0.31131977 0.79588193 0 0 0 255
0.43765947 0.44051188 0.65014011 0 0 0 255
0.44190988 0.44122449 0.64776599 0 0 0 255
0.1745654 0.30285051 0.82021105 0 0 0 255
0.39203015 0.38521031 0.68597203 0 0 0 255
0.23663297 0.32323441 0.78262001 0 0 0 255
0.44219232 0.39606565 0.65673429 0 0 0 255
0.27315292 0.39124137 0.74943238 0 0 0 255
0.20522934 0.30547845 0.80327487 0 0 0 255
0.16187063 0.32814261 0.82238668 0 0 0 255
0.42061785 0.39227825 0.66936624 0 0 0 255
0.39612165 0.38640252 0.68394238 0 0 0 255
0.36923969 0.37961555 0.69987005 0 0 0 255
0.4689391 0.40165311 0.64144427 0 0 0 255
0.49182332 0.44182822 0.62112987 0 0 0 255
0.22204486 0.3150385 0.79259682 0 0 0 255
0.36186457 0.42377043 0.69529051 0 0 0 255
0.46016508 0.39953852 0.64675349 0 0 0 255
0.2374934 0.3238821 0.78250116 0 0 0 255
0.37073699 0.380086 0.69921201 0 0 0 255
0.49519905 0.41873333 0.62407058 0 0 0 255
0.24222168 0.37644526 0.76970637 0 0 0 255
0.26721725 0.38854578 0.75376654 0 0 0 255
0.19666713 0.30148157 0.80932474 0 0 0 255
0.49529594 0.41857898 0.62426168 0 0 0 255
0.49172115 0.44390535 0.62132573 0 0 0 255
0.18363713 0.34335858 0.80844545 0 0 0 255
0.18704861 0.34550741 0.80617839 0 0 0 255
0.38786843 0.43060154 0.68054235 0 0 0 255
0.25821885 0.33484283 0.76979077 0 0 0 255
0.49557558 0.41800141 0.62478524 0 0 0 255
0.17931086 0.29663825 0.82035059 0 0 0 255
0.4306286 0.44017562 0.65579927 0 0 0 255
0.33622047 0.36893231 0.72109544 0 0 0 255
0.4835763 0.40571997 0.63390708 0 0 0 255
0.47328424 0.40327638 0.63999736 0 0 0 255
0.31227055 0.40767285 0.72648966 0 0 0 255
0.2933313 0.35198322 0.74783742 0 0 0 255
0.39227158 0.38593265 0.68746799 0 0 0 255
0.47129288 0.40280941 0.6412704 0 0 0 255
0.21690238 0.31252456 0.7971862 0 0 0 255
0.31117976 0.35989222 0.73668951 0 0 0 255
0.3186346 0.36267069 0.73229474 0 0 0 255
0.24935171 0.33070016 0.77620006 0 0 0 255
0.20929766 0.35807055 0.79252595 0 0 0 255
0.25737205 0.38418305 0.76128983 0 0 0 255
0.45309949 0.39886141 0.65240061 0 0 0 255
0.22661386 0.3182351 0.79127175 0 0 0 255
0.35715812 0.42323765 0.69979066 0 0 0 255
0.22013369 0.3646926 0.78575456 0 0 0 255
0.31704426 0.36224976 0.73372066 0 0 0 255
0.36083522 0.3782244 0.70692021 0 0 0 255
0.27535367 0.34358236 0.76023352 0 0 0 255
0.3945742 0.43284789 0.67794162 0 0 0 255
0.40719819 0.39007324 0.67954588 0 0 0 255
0.16933201 0.31396577 0.82369518 0 0 0 255
0.47115016 0.44668502 0.63378847 0 0 0 255
0.19894172 0.35223603 0.80012399 0 0 0 255
0.45026872 0.39864439 0.65471017 0 0 0 255
0.41906947 0.39307594 0.6727646 0 0 0 255
0.2717247 0.34191784 0.76283222 0 0 0 255
0.43290827 0.39557847 0.66483223 0 0 0 255
0.29617 0.35379028 0.74736124 0 0 0 255
0.18687508 0.2973395 0.81780434 0 0 0 255
0.3872771 0.38520831 0.69175702 0 0 0 255
0.36370111 0.3791967 0.70575434 0 0 0 255
0.40042102 0.43454385 0.67502242 0 0 0 255
0.38901004 0.43168354 0.68183482 0 0 0 255
0.26462981 0.33859473 0.76770079 0 0 0 255
0.20068629 0.3044225 0.80913967 0 0 0 255
0.37249905 0.38155967 0.70071751 0 0 0 255
0.25735536 0.33508259 0.77236897 0 0 0 255
0.26044992 0.38613415 0.76075017 0 0 0 255
0.42414153 0.39421144 0.67036581 0 0 0 255
0.22344872 0.36698782 0.78462815 0 0 0 255
0.30164489 0.35654825 0.74434263 0 0 0 255
0.20516269 0.30667084 0.80654293 0 0 0 255
0.38319671 0.38437048 0.69465137 0 0 0 255
0.28056151 0.34640703 0.75784802 0 0 0 255
0.18702441 0.2976591 0.81833911 0 0 0 255
0.49741596 0.41105616 0.62756324 0 0 0 255
0.47607893 0.4049083 0.64036131 0 0 0 255
0.44202688 0.39754841 0.66035324 0 0 0 255
0.38650614 0.38529137 0.69290215 0 0 0 255
0.41396677 0.39222777 0.6766398 0 0 0 255
0.31942645 0.41102719 0.72422284 0 0 0 255
0.25007579 0.3812407 0.7677629 0 0 0 255
0.33734092 0.41761038 0.71339571 0 0 0 255
0.35981914 0.3783823 0.70904446 0 0 0 255
0.2879082 0.35012898 0.7536726 0 0 0 255
0.41080055 0.43736887 0.66980606 0 0 0 255
0.44160938 0.39762622 0.66094977 0 0 0 255
0.2539871 0.33372879 0.77536994 0 0 0 255
0.49247247 0.40897042 0.63117498 0 0 0 255
0.29129401 0.35183117 0.75170779 0 0 0 255
0.28109837 0.34693465 0.75833082 0 0 0 255
0.19749081 0.3032622 0.8123197 0 0 0 255
0.1949207 0.30195519 0.81397611 0 0 0 255
0.39930832 0.38878235 0.68595797 0 0 0 255
0.25584999 0.33475044 0.77455133 0 0 0 255
0.32050592 0.36425894 0.73372358 0 0 0 255
0.43404096 0.39652029 0.66590005 0 0 0 255
0.21355572 0.31162849 0.80228788 0 0 0 255
0.3906002 0.38674197 0.69150972 0 0 0 255
0.36588585 0.42649642 0.69715154 0 0 0 255
0.22360909 0.31745416 0.7959196 0 0 0 255
0.21028773 0.30985469 0.80470073 0 0 0 255
0.48202166 0.40694338 0.63813704 0 0 0 255
0.1930311 0.30125451 0.8158679 0 0 0 255
0.29874942 0.4039779 0.73827887 0 0 0 255
0.41770792 0.43924454 0.66678947 0 0 0 255
0.41178572 0.39223811 0.67932224 0 0 0 255
0.41433772 0.39291441 0.67788941 0 0 0 255
0.29059401 0.4010632 0.7434414 0 0 0 255
0.47260737 0.40472934 0.64397901 0 0 0 255
0.20697725 0.35762894 0.79740149 0 0 0 255
0.35561308 0.42400062 0.70375019 0 0 0 255
0.42884353 0.39591697 0.66966319 0 0 0 255
0.29248425 0.4018347 0.74251723 0 0 0 255
0.31183627 0.3614538 0.74004573 0 0 0 255
0.35697949 0.37791011 0.7123847 0 0 0 255
0.40417463 0.39052111 0.68433899 0 0 0 255
0.34711471 0.37435922 0.71855766 0 0 0 255
0.48375177 0.44941178 0.62968367 0 0 0 255
0.31751904 0.36363283 0.7368691 0 0 0 255
0.16650245 0.32177019 0.82711524 0 0 0 255
0.31127852 0.40885416 0.73147923 0 0 0 255
0.16717142 0.32081205 0.82706738 0 0 0 255
0.49788633 0.41398293 0.62927192 0 0 0 255
0.28001615 0.34699482 0.76082122 0 0 0 255
0.29250413 0.35304508 0.75287199 0 0 0 255
0.37090668 0.42834798 0.69562513 0 0 0 255
0.32411236 0.36621138 0.73332661 0 0 0 255
0.32271963 0.36571765 0.73421973 0 0 0 255
0.43478414 0.39738882 0.66718435 0 0 0 255
0.16512927 0.32450399 0.82787126 0 0 0 255
0.23785442 0.32614145 0.78813213 0 0 0 255
0.32165194 0.41279525 0.72557616 0 0 0 255
0.38777462 0.43268734 0.68583071 0 0 0 255
0.44911534 0.40000382 0.65902436 0 0 0 255
0.33526829 0.37034473 0.72668028 0 0 0 255
0.21572557 0.31352985 0.80275404 0 0 0 255
0.33932832 0.37185329 0.7242738 0 0 0 255
0.35377821 0.42402214 0.70616132 0 0 0 255
0.29590464 0.35486826 0.75124919 0 0 0 255
0.34904459 0.37546152 0.7185086 0 0 0 255
0.33726951 0.37119401 0.72579437 0 0 0 255
0.33284464 0.41703025 0.7191577 0 0 0 255
0.45933467 0.40221077 0.65353656 0 0 0 255
0.49713868 0.421716 0.62918621 0 0 0 255
0.20485759 0.35686997 0.80060768 0 0 0 255
0.29524001 0.40339765 0.74241441 0 0 0 255
0.42354572 0.44130245 0.66537106 0 0 0 255
0.4951939 0.4356879 0.62763911 0 0 0 255
0.16965409 0.31814444 0.82765162 0 0 0 255
0.43331766 0.44336057 0.65991825 0 0 0 255
0.24778831 0.33162564 0.78265995 0 0 0 255
0.49019593 0.40996084 0.63569117 0 0 0 255
0.49316132 0.45078328 0.62608296 0 0 0 255
0.21555081 0.31375682 0.80380279 0 0 0 255
0.18021469 0.3013829 0.82545853 0 0 0 255
0.33982641 0.37235397 0.72487557 0 0 0 255
0.20271176 0.30704543 0.81219453 0 0 0 255
0.22733471 0.37053567 0.7863149 0 0 0 255
0.49721453 0.41170108 0.63180941 0 0 0 255
0.29606542 0.35532579 0.75231695 0 0 0 255
0.46371347 0.40374017 0.65193391 0 0 0 255
0.49527049 0.43739873 0.6281718 0 0 0 255
0.34231195 0.42087537 0.71447551 0 0 0 255
0.17849517 0.30468312 0.8263073 0 0 0 255
0.3118751 0.36236387 0.74256855 0 0 0 255
0.48102176 0.45034954 0.63345999 0 0 0 255
0.41564769 0.39441144 0.68000358 0 0 0 255
0.35101211 0.3766554 0.71865785 0 0 0 255
0.46314687 0.4485403 0.64375913 0 0 0 255
0.46293262 0.40371448 0.65276003 0 0 0 255
0.23140296 0.32314837 0.79434901 0 0 0 255
0.25094858 0.33360955 0.7818085 0 0 0 255
0.24260172 0.32936788 0.78721833 0 0 0 255
0.35130382 0.376912 0.71890628 0 0 0 255
0.44999114 0.4010691 0.66063523 0 0 0 255
0.32039806 0.36572519 0.73806924 0 0 0 255
0.39934009 0.43653396 0.6812765 0 0 0 255
0.3617641 0.38078985 0.7126807 0 0 0 255
0.21319672 0.3129046 0.80675715 0 0 0 255
0.2492108 0.38250089 0.77349609 0 0 0 255
0.29410911 0.40366778 0.74504513 0 0 0 255
0.28572473 0.3507123 0.76012117 0 0 0 255
0.47856763 0.40797129 0.64422995 0 0 0 255
0.23422953 0.37512362 0.78331989 0 0 0 255
0.29099351 0.35330221 0.75688201 0 0 0 255
0.24543902 0.3310324 0.78608435 0 0 0 255
0.35327625 0.42492276 0.70913839 0 0 0 255
0.30816349 0.40892673 0.73681861 0 0 0 255
0.4038102 0.39195246 0.68832999 0 0 0 255
0.18966505 0.30123943 0.82243031 0 0 0 255
0.2568332 0.33686444 0.77897322 0 0 0 255
0.45143324 0.4472875 0.65162897 0 0 0 255
0.39762127 0.39042366 0.69208062 0 0 0 255
0.29447034 0.35510564 0.75503558 0 0 0 255
0.4435299 0.40030861 0.6652891 0 0 0 255
0.37118483 0.38374621 0.70792562 0 0 0 255
0.27870417 0.34753588 0.76528329 0 0 0 255
0.4665786 0.40530798 0.65212566 0 0 0 255
0.42855909 0.44351614 0.66522092 0 0 0 255
0.3697969 0.3834568 0.70896077 0 0 0 255
0.18018702 0.34390521 0.81967121 0 0 0 255
0.2379382 0.37739295 0.78176236 0 0 0 255
0.47223061 0.4067497 0.64886338 0 0 0 255
0.35608521 0.42592913 0.70813924 0 0 0 255
0.23993805 0.32848364 0.79043084 0 0 0 255
0.21170512 0.3124837 0.80896944 0 0 0 255
0.35757223 0.37974635 0.7166267 0 0 0 255
0.31232014 0.36327714 0.7444306 0 0 0 255
0.16905116 0.33641657 0.82751006 0 0 0 255
0.30319455 0.40741736 0.74072087 0 0 0 255
0.34350425 0.4221046 0.71600145 0 0 0 255
0.27191225 0.3444382 0.77020133 0 0 0 255
0.3723889 0.4303917 0.69888812 0 0 0 255
0.32993409 0.36979064 0.73390108 0 0 0 255
0.2745133 0.39528373 0.7590661 0 0 0 255
0.39449304 0.43606547 0.68602198 0 0 0 255
0.37014064 0.38385266 0.70954549 0 0 0 255
0.2267202 0.32127923 0.79972893 0 0 0 255
0.3077094 0.36170051 0.74781454 0 0 0 255
0.24090418 0.32919759 0.79051089 0 0 0 255
0.44542891 0.44694018 0.65633827 0 0 0 255
0.26803371 0.34274802 0.77325249 0 0 0 255
0.49605727 0.4398253 0.63049394 0 0 0 255
0.1868791 0.30042854 0.82579452 0 0 0 255
0.40951502 0.39408508 0.68666559 0 0 0 255
0.35652277 0.37971625 0.71827161 0 0 0 255
0.47799876 0.40878528 0.64667982 0 0 0 255
0.42906806 0.39845502 0.67535299 0 0 0 255
0.33368471 0.37145376 0.73244387 0 0 0 255
0.21524855 0.3643845 0.79819971 0 0 0 255
0.32724166 0.41661459 0.72721088 0 0 0 255
0.45518327 0.40323767 0.66047311 0 0 0 255
0.25818932 0.38772234 0.77047056 0 0 0 255
0.26974279 0.34381965 0.77291542 0 0 0 255
0.24768753 0.33298406 0.78718907 0 0 0 255
0.34917617 0.37725636 0.72339344 0 0 0 255
0.16335107 0.33290169 0.83301646 0 0 0 255
0.43649697 0.40002415 0.67162067 0 0 0 255
0.32490408 0.36846495 0.7384268 0 0 0 255
0.237196 0.32771325 0.79418117 0 0 0 255
0.30549821 0.3611142 0.75063491 0 0 0 255
0.41281328 0.39536899 0.68582952 0 0 0 255
0.48389745 0.45275599 0.63594496 0 0 0 255
0.49384797 0.41312212 0.63839644 0 0 0 255
0.44797981 0.40227035 0.66543412 0 0 0 255
0.21786505 0.36622047 0.79739606 0 0 0 255
0.25842941 0.33857879 0.78085774 0 0 0 255
0.16349058 0.33324453 0.83347321 0 0 0 255
0.37039968 0.38458145 0.71110255 0 0 0 255
0.4244948 0.39812422 0.67913049 0 0 0 255
0.28776371 0.35281983 0.76227432 0 0 0 255
0.44566011 0.40192732 0.66694194 0 0 0 255
0.16479406 0.33133674 0.83334357 0 0 0 255
0.49516886 0.41356528 0.6379081 0 0 0 255
0.25591832 0.38696966 0.77298874 0 0 0 255
0.24190381 0.33031347 0.79178804 0 0 0 255
0.46414754 0.45080376 0.64747268 0 0 0 255
0.38877144 0.38946968 0.70049721 0 0 0 255
0.32454377 0.41612446 0.73026496 0 0 0 255
0.25182128 0.33544785 0.78565973 0 0 0 255
0.39871493 0.43803531 0.68576264 0 0 0 255
0.35384682 0.37937549 0.72171551 0 0 0 255
0.49207181 0.4130199 0.64008707 0 0 0 255
0.48526081 0.41142803 0.64410686 0 0 0 255
0.32741171 0.36976314 0.73798203 0 0 0 255
0.23713297 0.37799412 0.78535128 0 0 0 255
0.22884122 0.32331449 0.80068946 0 0 0 255
0.33625287 0.42051604 0.72344029 0 0 0 255
0.3276546 0.41741157 0.72879356 0 0 0 255
0.27750301 0.34817457 0.76981026 0 0 0 255
0.25880903 0.33914429 0.78179228 0 0 0 255
0.3514846 0.37870649 0.72370905 0 0 0 255
0.19233735 0.35283443 0.8152594 0 0 0 255
0.46083605 0.40558776 0.65922606 0 0 0 255
0.4990623 0.42623872 0.63459212 0 0 0 255
0.23586087 0.32761475 0.7969076 0 0 0 255
0.31722635 0.41383621 0.7358256 0 0 0 255
0.343458 0.37594742 0.72910166 0 0 0 255
0.49880886 0.42861003 0.6345101 0 0 0 255
0.38720587 0.38963965 0.70282561 0 0 0 255
0.43731156 0.40116552 0.67346966 0 0 0 255
0.43154544 0.40015098 0.67684066 0 0 0 255
0.18151073 0.30618477 0.8310672 0 0 0 255
0.40939355 0.395336 0.68991345 0 0 0 255
0.44368991 0.44838479 0.66087878 0 0 0 255
0.4487446 0.4032917 0.6670531 0 0 0 255
0.49857727 0.43167767 0.63462085 0 0 0 255
0.29750842 0.35817525 0.75823188 0 0 0 255
0.48037177 0.45356786 0.64023077 0 0 0 255
0.17536172 0.31655982 0.83287966 0 0 0 255
0.41299736 0.39642468 0.68822128 0 0 0 255
0.21588218 0.31655061 0.8110292 0 0 0 255
0.427095 0.39963254 0.6800586 0 0 0 255
0.26836726 0.34423277 0.77711844 0 0 0 255
0.16500874 0.33514035 0.83500606 0 0 0 255
0.31051433 0.36429983 0.75031531 0 0 0 255
0.50088787 0.41599348 0.63686109 0 0 0 255
0.39308518 0.39151597 0.70031333 0 0 0 255
0.36292133 0.42970484 0.70914322 0 0 0 255
0.2046929 0.31085974 0.81847221 0 0 0 255
0.35683525 0.38124579 0.72210413 0 0 0 255
0.304645 0.36174265 0.75442588 0 0 0 255
0.40134731 0.39370021 0.69566154 0 0 0 255
0.18533613 0.34908855 0.82168782 0 0 0 255
0.30265707 0.36082518 0.75572711 0 0 0 255
0.40440425 0.39449388 0.6939044 0 0 0 255
0.41101438 0.39618954 0.6900543 0 0 0 255
0.20058094 0.30901656 0.82144254 0 0 0 255
0.4757461 0.45345753 0.64364266 0 0 0 255
0.18649422 0.30195197 0.83049375 0 0 0 255
0.35085732 0.37920022 0.7261467 0 0 0 255
0.4479126 0.44961688 0.65959775 0 0 0 255
0.46163926 0.40664774 0.66063696 0 0 0 255
0.23061535 0.32524621 0.80214822 0 0 0 255
0.49924728 0.42982775 0.63578171 0 0 0 255
0.390257 0.39103961 0.70257801 0 0 0 255
0.2718493 0.39566967 0.76592535 0 0 0 255
0.38854578 0.39064068 0.70367396 0 0 0 255
0.33440265 0.37329042 0.73648077 0 0 0 255
0.43430591 0.44717547 0.66773278 0 0 0 255
0.3759526 0.38737938 0.71121478 0 0 0 255
0.41357243 0.39698797 0.68891686 0 0 0 255
0.30179903 0.36059341 0.75680822 0 0 0 255
0.36720568 0.4311628 0.70741975 0 0 0 255
0.46368849 0.45233351 0.65093356 0 0 0 255
0.35518739 0.38096696 0.72402871 0 0 0 255
0.48401013 0.45468447 0.63959414 0 0 0 255
0.40831217 0.44173992 0.68325526 0 0 0 255
0.50028777 0.42410707 0.63697147 0 0 0 255
0.34884131 0.3787269 0.72812557 0 0 0 255
0.23476204 0.37752303 0.79026318 0 0 0 255
0.34278008 0.42396984 0.72249174 0 0 0 255
0.37839323 0.38821724 0.71024746 0 0 0 255
0.43055755 0.40087262 0.67950428 0 0 0 255
0.19202451 0.35370246 0.8182568 0 0 0 255
0.34022844 0.42307884 0.72416633 0 0 0 255
0.20811096 0.31301355 0.81764072 0 0 0 255
0.46504927 0.45276976 0.65067273 0 0 0 255
0.25476781 0.3876763 0.77762228 0 0 0 255
0.20168346 0.3587282 0.81214774 0 0 0 255
0.17765912 0.31466246 0.8338989 0 0 0 255
0.32224998 0.36914429 0.74473429 0 0 0 255
0.26055181 0.39049673 0.77399641 0 0 0 255
0.24168162 0.33146179 0.79592609 0 0 0 255
0.4262991 0.40021935 0.68221736 0 0 0 255
0.27960664 0.39960742 0.76195514 0 0 0 255
0.26330978 0.34235665 0.78210759 0 0 0 255
0.1815455 0.34700531 0.82562423 0 0 0 255
0.41446862 0.44346952 0.68041748 0 0 0 255
0.46735722 0.4532772 0.64986968 0 0 0 255
0.28743911 0.35416335 0.76710677 0 0 0 255
0.16778308 0.33108515 0.83658576 0 0 0 255
0.39723206 0.39335406 0.6998167 0 0 0 255
0.33241704 0.42053899 0.72982663 0 0 0 255
0.50138217 0.41916162 0.63845032 0 0 0 255
0.26351425 0.39216465 0.77282888 0 0 0 255
0.24354914 0.38251483 0.78560841 0 0 0 255
0.19209534 0.30551302 0.82872897 0 0 0 255
0.20776871 0.36216798 0.8090418 0 0 0 255
0.3728075 0.43320772 0.7055254 0 0 0 255
0.37038237 0.43257326 0.70699513 0 0 0 255
0.44995338 0.4047817 0.66932225 0 0 0 255
0.31666014 0.36745149 0.74913967 0 0 0 255
0.27298477 0.3473303 0.77683127 0 0 0 255
0.25558701 0.33886352 0.78797579 0 0 0 255
0.49029258 0.41480553 0.64573556 0 0 0 255
0.3526853 0.38061237 0.72714651 0 0 0 255
0.47523552 0.41097456 0.65469408 0 0 0 255
0.36329806 0.3844873 0.72066134 0 0 0 255
0.17032622 0.32771128 0.83663428 0 0 0 255
0.38431406 0.39036265 0.70819336 0 0 0 255
0.48265725 0.41294485 0.65045577 0 0 0 255
0.42174578 0.39986336 0.686086 0 0 0 255
0.34429777 0.37763214 0.7325058 0 0 0 255
0.40632468 0.39598432 0.6952585 0 0 0 255
0.20649932 0.31279725 0.8201381 0 0 0 255
0.45490673 0.40606672 0.66697323 0 0 0 255
0.35047168 0.42736202 0.71944952 0 0 0 255
0.23196185 0.32683915 0.80361825 0 0 0 255
0.25167882 0.38669452 0.7811771 0 0 0 255
0.30948439 0.41248751 0.74475372 0 0 0 255
0.20932779 0.363262 0.80882376 0 0 0 255
0.27129838 0.3961913 0.76874071 0 0 0 255
0.43236011 0.40196687 0.6802609 0 0 0 255
0.28606293 0.4031226 0.75940311 0 0 0 255
0.19895075 0.30932 0.82534462 0 0 0 255
0.18613474 0.30294311 0.83361328 0 0 0 255
0.41020313 0.44312683 0.68439096 0 0 0 255
0.42867586 0.44708389 0.67363036 0 0 0 255
0.49741974 0.45012933 0.63578397 0 0 0 255
0.49954027 0.43522167 0.63758242 0 0 0 255
0.23389146 0.37764382 0.79309744 0 0 0 255
0.4536837 0.45198238 0.65924823 0 0 0 255
0.42168453 0.40014589 0.68686068 0 0 0 255
0.20110025 0.3104687 0.82427973 0 0 0 255
0.19351986 0.35532176 0.81959587 0 0 0 255
0.32389104 0.37052551 0.74595445 0 0 0 255
0.18618695 0.30330348 0.83398235 0 0 0 255
0.23108822 0.37604767 0.79525936 0 0 0 255
0.2866762 0.35438141 0.76940387 0 0 0 255
0.18698809 0.35132545 0.82413054 0 0 0 255
0.50034672 0.43074352 0.6385141 0 0 0 255
0.21114075 0.31542569 0.81822878 0 0 0 255
0.49906397 0.43994936 0.63746524 0 0 0 255
0.36763909 0.38639554 0.71936113 0 0 0 255
0.20313983 0.31161603 0.82342035 0 0 0 255
0.20102111 0.31060231 0.82478219 0 0 0 255
0.37497801 0.38838133 0.71506822 0 0 0 255
0.39510283 0.39364925 0.70314211 0 0 0 255
0.39501661 0.43960631 0.6941672 0 0 0 255
0.17810319 0.31668246 0.83614182 0 0 0 255
0.49723801 0.4534153 0.63604748 0 0 0 255
0.17658412 0.3192029 0.83655304 0 0 0 255
0.41055652 0.44358736 0.68510246 0 0 0 255
0.20123 0.31081155 0.82493597 0 0 0 255
0.47575271 0.41186774 0.65606302 0 0 0 255
0.19095214 0.30576241 0.83161658 0 0 0 255
0.31888336 0.36896008 0.749762 0 0 0 255
0.21948668 0.36927754 0.80363071 0 0 0 255
0.44377697 0.45075387 0.6660049 0 0 0 255
0.24550861 0.33443362 0.79669797 0 0 0 255
0.425001 0.44690245 0.67718869 0 0 0 255
0.24119389 0.33227947 0.79961634 0 0 0 255
0.2362444 0.37947735 0.79301482 0 0 0 255
0.40109017 0.39550051 0.70043617 0 0 0 255
0.3693898 0.38723007 0.71927297 0 0 0 255
0.26346231 0.34353548 0.78541625 0 0 0 255
0.21086004 0.31570047 0.81948698 0 0 0 255
0.39870942 0.44089285 0.6928578 0 0 0 255
0.28064841 0.35189199 0.77456915 0 0 0 255
0.42825785 0.44776517 0.67571449 0 0 0 255
0.18447749 0.30755341 0.83565682 0 0 0 255
0.33105975 0.4211469 0.73378956 0 0 0 255
0.47134194 0.41122675 0.65968889 0 0 0 255
0.22165397 0.32183608 0.81292027 0 0 0 255
0.21072321 0.36490002 0.81041807 0 0 0 255
0.17502618 0.32310084 0.83810019 0 0 0 255
0.27218908 0.34796667 0.78048754 0 0 0 255
0.359413 0.43094558 0.71686053 0 0 0 255
0.22550543 0.3732588 0.80093306 0 0 0 255
0.44756985 0.40579385 0.67405081 0 0 0 255
0.38977101 0.39299428 0.70801395 0 0 0 255
0.32353461 0.37114421 0.74830061 0 0 0 255
0.49976411 0.41854912 0.6434195 0 0 0 255
0.29426217 0.40787223 0.75706464 0 0 0 255
0.36137739 0.38498661 0.72524768 0 0 0 255
0.27280751 0.3484078 0.7805301 0 0 0 255
0.30531564 0.36393943 0.75995469 0 0 0 255
0.19539437 0.35721961 0.82091576 0 0 0 255
0.47963744 0.41369119 0.6555891 0 0 0 255
0.4872371 0.4156706 0.65116519 0 0 0 255
0.39833027 0.44131103 0.69435728 0 0 0 255
0.38155103 0.39100608 0.71341825 0 0 0 255
0.21785715 0.31996667 0.81627083 0 0 0 255
0.34769517 0.42761609 0.72474658 0 0 0 255
0.4070785 0.39765656 0.69848442 0 0 0 255
0.31703466 0.41649705 0.7436977 0 0 0 255
0.23835778 0.33140054 0.80323505 0 0 0 255
0.21705627 0.31963626 0.81716013 0 0 0 255
0.3074021 0.36510825 0.75923997 0 0 0 255
0.2564474 0.34066185 0.79172832 0 0 0 255
0.18175794 0.31351796 0.83763784 0 0 0 255
0.24981335 0.38708839 0.7863695 0 0 0 255
0.29329357 0.35859635 0.76847374 0 0 0 255
0.42522261 0.40236512 0.68828708 0 0 0 255
0.34190416 0.37829754 0.73834395 0 0 0 255
0.29617846 0.40913543 0.75716209 0 0 0 255
0.49600846 0.45895919 0.63892454 0 0 0 255
0.3276158 0.37316504 0.74731529 0 0 0 255
0.18865265 0.30572689 0.83603448 0 0 0 255
0.50316614 0.42028257 0.64281088 0 0 0 255
0.4929153 0.41763225 0.6489228 0 0 0 255
0.19410466 0.30852568 0.83258861 0 0 0 255
0.31351167 0.36810374 0.75618535 0 0 0 255
0.50293839 0.42007744 0.64321661 0 0 0 255
0.23137574 0.32816368 0.8087458 0 0 0 255
0.49999857 0.44324973 0.64031047 0 0 0 255
0.50146782 0.43303031 0.64157939 0 0 0 255
0.500471 0.44006369 0.64073926 0 0 0 255
0.22603701 0.32514042 0.81232888 0 0 0 255
0.48239073 0.41511035 0.65553212 0 0 0 255
0.46742582 0.41136527 0.66441667 0 0 0 255
0.1675413 0.33740759 0.84172863 0 0 0 255
0.29848421 0.36129853 0.76604539 0 0 0 255
0.49795556 0.45827615 0.6387158 0 0 0 255
0.46755373 0.41146886 0.66449881 0 0 0 255
0.40902483 0.44468659 0.68969619 0 0 0 255
0.44546351 0.4525241 0.66840827 0 0 0 255
0.27459615 0.34992495 0.78139675 0 0 0 255
0.29109773 0.35789195 0.77088815 0 0 0 255
0.28277954 0.35396332 0.77641457 0 0 0 255
0.45202291 0.40777993 0.67397863 0 0 0 255
0.23588648 0.33066794 0.80649388 0 0 0 255
0.38165122 0.39182621 0.71541673 0 0 0 255
0.18253085 0.31387869 0.83883715 0 0 0 255
0.30026722 0.36231956 0.7655046 0 0 0 255
0.33935815 0.37786028 0.74129915 0 0 0 255
0.27100092 0.39780506 0.77447259 0 0 0 255
0.2961511 0.40959224 0.75850445 0 0 0 255
0.43081927 0.40401602 0.68656743 0 0 0 255
0.29631916 0.36051878 0.76815653 0 0 0 255
0.18937482 0.35449108 0.82745242 0 0 0 255
0.33954522 0.37799877 0.74138439 0 0 0 255
0.18444361 0.31120282 0.83874607 0 0 0 255
0.3222138 0.37171578 0.75210333 0 0 0 255
0.21988893 0.32200891 0.81745577 0 0 0 255
0.41660523 0.44682366 0.68612134 0 0 0 255
0.3499825 0.42929167 0.72573537 0 0 0 255
0.48127812 0.45828104 0.64888787 0 0 0 255
0.25448072 0.3900142 0.78544933 0 0 0 255
0.49840027 0.45806015 0.63969827 0 0 0 255
0.41262972 0.40007997 0.69772768 0 0 0 255
0.49922207 0.45266563 0.6404748 0 0 0 255
0.17581846 0.32549328 0.84106338 0 0 0 255
0.31504035 0.416702 0.74756622 0 0 0 255
0.2271456 0.37527204 0.8034547 0 0 0 255
0.44309738 0.40650541 0.68015653 0 0 0 255
0.3029159 0.36381939 0.7646482 0 0 0 255
0.22212812 0.32346132 0.81647998 0 0 0 255
0.3430801 0.42696345 0.73049849 0 0 0 255
0.48824942 0.41733709 0.65366489 0 0 0 255
0.24923997 0.33783033 0.79903144 0 0 0 255
0.36747095 0.43452948 0.71579945 0 0 0 255
0.40866348 0.44517708 0.6913532 0 0 0 255
0.42609373 0.44905263 0.68114597 0 0 0 255
0.2633355 0.3449381 0.79000956 0 0 0 255
0.25144196 0.33896297 0.79764754 0 0 0 255
0.32934579 0.37455997 0.74842775 0 0 0 255
0.28958184 0.35770804 0.77351123 0 0 0 255
0.18506737 0.35196656 0.83143389 0 0 0 255
0.44317251 0.40673822 0.68062425 0 0 0 255
0.17937246 0.32039964 0.84078979 0 0 0 255
0.33544925 0.42433679 0.73561472 0 0 0 255
0.30928111 0.41482127 0.75171626 0 0 0 255
0.25736767 0.34212488 0.79428387 0 0 0 255
0.47055724 0.41319466 0.66487956 0 0 0 255
0.4017362 0.39780733 0.70536596 0 0 0 255
0.18081386 0.31858784 0.84089667 0 0 0 255
0.17287204 0.3440696 0.84036076 0 0 0 255
0.45702279 0.41000143 0.67318815 0 0 0 255
0.18744341 0.35378855 0.83058131 0 0 0 255
0.17535631 0.34574279 0.83874428 0 0 0 255
0.46389803 0.41175672 0.66925883 0 0 0 255
0.44975957 0.40831026 0.67769599 0 0 0 255
0.2025523 0.36258274 0.82083917 0 0 0 255
0.48998287 0.46009976 0.64566958 0 0 0 255
0.45726946 0.45598844 0.66424543 0 0 0 255
0.24161196 0.33436221 0.80526793 0 0 0 255
0.36835676 0.38920671 0.72573477 0 0 0 255
0.39840925 0.39721033 0.70793927 0 0 0 255
0.50072014 0.44662064 0.64267838 0 0 0 255
0.20310226 0.31419861 0.83029532 0 0 0 255
0.30789798 0.36666602 0.76311755 0 0 0 255
0.33830431 0.37832126 0.74434716 0 0 0 255
0.480198 0.45913306 0.65142936 0 0 0 255
0.25813103 0.34285396 0.79486954 0 0 0 255
0.33983853 0.42636299 0.73413545 0 0 0 255
0.2570819 0.39193675 0.78583765 0 0 0 255
0.16871017 0.33880764 0.84428155 0 0 0 255
0.38910395 0.39485919 0.71369386 0 0 0 255
0.21552405 0.32031238 0.82260096 0 0 0 255
0.48596507 0.41752493 0.65671843 0 0 0 255
0.43863934 0.40651041 0.68460172 0 0 0 255
0.3012898 0.36366463 0.7675963 0 0 0 255
0.33640689 0.37772888 0.74579203 0 0 0 255
0.49438936 0.41973367 0.65184671 0 0 0 255
0.20603612 0.31577477 0.82886374 0 0 0 255
0.45437434 0.4097769 0.67568946 0 0 0 255
0.19814159 0.36058831 0.82444513 0 0 0 255
0.2547549 0.34132895 0.79766119 0 0 0 255
0.23140892 0.37850443 0.80299014 0 0 0 255
0.39452001 0.39649299 0.71096218 0 0 0 255
0.20885874 0.31724417 0.8273626 0 0 0 255
0.39556333 0.39682278 0.71047509 0 0 0 255
0.46755326 0.4581103 0.65932274 0 0 0 255
0.46323103 0.41209659 0.67075586 0 0 0 255
0.49184459 0.41930878 0.65385193 0 0 0 255
0.40263551 0.44460058 0.69726992 0 0 0 255
0.29308534 0.36002669 0.77343678 0 0 0 255
0.33863354 0.37875393 0.74503422 0 0 0 255
0.31127062 0.41625878 0.75251979 0 0 0 255
0.25485095 0.34148073 0.79792523 0 0 0 255
0.38582394 0.44038144 0.70739716 0 0 0 255
0.38602453 0.39437306 0.71639568 0 0 0 255
0.17369242 0.34510884 0.84134978 0 0 0 255
0.50108522 0.42179394 0.64879942 0 0 0 255
0.22199264 0.32439438 0.81945693 0 0 0 255
0.22058526 0.37244987 0.81074888 0 0 0 255
0.39898086 0.39790267 0.70895869 0 0 0 255
0.26543909 0.34687775 0.79150784 0 0 0 255
0.18625532 0.31184703 0.84138453 0 0 0 255
0.41515806 0.40200305 0.6994133 0 0 0 255
0.22800151 0.3278842 0.81567293 0 0 0 255
0.16982897 0.34263027 0.84438694 0 0 0 255
0.42976069 0.40546411 0.69099396 0 0 0 255
0.29874754 0.41191071 0.7608096 0 0 0 255
0.27443224 0.40066725 0.77625883 0 0 0 255
0.5029583 0.43553314 0.64554286 0 0 0 255
0.21990556 0.32335722 0.82127124 0 0 0 255
0.21642804 0.32138172 0.82358736 0 0 0 255
0.27444768 0.35138991 0.78622842 0 0 0 255
0.32261613 0.37327257 0.75586504 0 0 0 255
0.28647235 0.40642935 0.76899147 0 0 0 255
0.38874888 0.39546227 0.71571517 0 0 0 255
0.45540103 0.41070443 0.67655802 0 0 0 255
0.45003051 0.45559502 0.67079407 0 0 0 255
0.29899544 0.41223133 0.76131159 0 0 0 255
0.48952639 0.41932523 0.6565671 0 0 0 255
0.48612654 0.41848409 0.6586439 0 0 0 255
0.44196951 0.4079684 0.68468666 0 0 0 255
0.47535539 0.41585872 0.66528493 0 0 0 255
0.25254202 0.34082487 0.80106038 0 0 0 255
0.48086703 0.41729438 0.66210234 0 0 0 255
0.50316095 0.43663326 0.64623976 0 0 0 255
0.43903977 0.45349169 0.67770207 0 0 0 255
0.28536835 0.3569625 0.78014511 0 0 0 255
0.28147388 0.35508937 0.78266627 0 0 0 255
0.21668696 0.32186776 0.82438368 0 0 0 255
0.50344801 0.43479174 0.64652008 0 0 0 255
0.28376698 0.40541264 0.77150357 0 0 0 255
0.3109518 0.36900115 0.76404566 0 0 0 255
0.35145894 0.38413057 0.73916906 0 0 0 255
0.193102 0.3104907 0.83964264 0 0 0 255
0.19446538 0.35956091 0.82927507 0 0 0 255
0.24515775 0.33719531 0.80623549 0 0 0 255
0.16994452 0.33977893 0.84654266 0 0 0 255
0.35813129 0.43379477 0.72588563 0 0 0 255
0.36997801 0.43695125 0.71885389 0 0 0 255
0.40490043 0.44605875 0.69812661 0 0 0 255
0.45068988 0.45613489 0.67136943 0 0 0 255
0.41936523 0.40380493 0.69875371 0 0 0 255
0.41685322 0.40317282 0.70024729 0 0 0 255
0.38527811 0.44109035 0.70993406 0 0 0 255
0.37152281 0.43743446 0.71812236 0 0 0 255
0.31150568 0.36944184 0.76426828 0 0 0 255
0.25292927 0.34127569 0.80161387 0 0 0 255
0.27948549 0.40364313 0.77497149 0 0 0 255
0.21582524 0.32168478 0.82580173 0 0 0 255
0.34282753 0.38124633 0.74520332 0 0 0 255
0.27560982 0.35255387 0.78734088 0 0 0 255
0.18858954 0.31044403 0.84286994 0 0 0 255
0.26184565 0.34590191 0.79615355 0 0 0 255
0.49552995 0.42157188 0.6545763 0 0 0 255
0.50453341 0.43009198 0.64804995 0 0 0 255
0.46399814 0.41366082 0.67331028 0 0 0 255
0.20112456 0.3147628 0.8355456 0 0 0 255
0.2494261 0.38952139 0.7947036 0 0 0 255
0.39287814 0.39737776 0.71537036 0 0 0 255
0.26712841 0.34862295 0.79328895 0 0 0 255
0.24659517 0.33832508 0.80656832 0 0 0 255
0.34998056 0.38408929 0.74148947 0 0 0 255
0.19019894 0.30959845 0.84302598 0 0 0 255
0.38138217 0.44054633 0.71352613 0 0 0 255
0.33693567 0.37943298 0.74976403 0 0 0 255
0.50426787 0.43410373 0.64827079 0 0 0 255
0.26870093 0.3989962 0.78310728 0 0 0 255
0.3660934 0.39011818 0.73205763 0 0 0 255
0.32049575 0.37353206 0.76009893 0 0 0 255
0.17776252 0.32903224 0.84633571 0 0 0 255
0.41840625 0.45005423 0.69189423 0 0 0 255
0.39251181 0.39756128 0.71631777 0 0 0 255
0.31910533 0.37309504 0.76114941 0 0 0 255
0.23041612 0.33032712 0.81776309 0 0 0 255
0.36381161 0.38938844 0.73374587 0 0 0 255
0.4096109 0.4021194 0.70645922 0 0 0 255
0.25166368 0.39099121 0.79446971 0 0 0 255
0.49480015 0.46333528 0.64831948 0 0 0 255
0.27809012 0.35429606 0.78742814 0 0 0 255
0.20039889 0.31493816 0.83738875 0 0 0 255
0.31522742 0.41925889 0.7545191 0 0 0 255
0.34703368 0.38338649 0.74435091 0 0 0 255
0.37495714 0.39308172 0.72728825 0 0 0 255
0.36283436 0.38914832 0.73467475 0 0 0 255
0.28566524 0.3579981 0.78270823 0 0 0 255
0.40153301 0.40019426 0.71153885 0 0 0 255
0.17512137 0.33394971 0.84750956 0 0 0 255
0.41955024 0.40478307 0.70095229 0 0 0 255
0.42624533 0.45199919 0.6880312 0 0 0 255
0.42560136 0.40634936 0.6974625 0 0 0 255
0.43624318 0.40838575 0.69135386 0 0 0 255
0.47517222 0.46137533 0.65983188 0 0 0 255
0.30476898 0.41560301 0.76137197 0 0 0 255
0.28453895 0.40675083 0.77410042 0 0 0 255
0.46882236 0.41575754 0.67244536 0 0 0 255
0.4545722 0.41227165 0.68092233 0 0 0 255
0.44734699 0.45659146 0.67609358 0 0 0 255
0.38278735 0.44148913 0.71416426 0 0 0 255
0.18476348 0.31898937 0.84578902 0 0 0 255
0.46126246 0.41395128 0.67703676 0 0 0 255
0.32737318 0.37647691 0.75712931 0 0 0 255
0.24932988 0.34030482 0.80666447 0 0 0 255
0.50098574 0.46124655 0.64633334 0 0 0 255
0.36013758 0.38844723 0.73712862 0 0 0 255
0.34156117 0.42915326 0.73922026 0 0 0 255
0.46531382 0.41509408 0.67495853 0 0 0 255
0.24439581 0.38782835 0.80020183 0 0 0 255
0.43333569 0.40815064 0.69369757 0 0 0 255
0.39568537 0.44504693 0.70684797 0 0 0 255
0.50415057 0.4395813 0.64913881 0 0 0 255
0.47383684 0.46157917 0.66128528 0 0 0 255
0.25343457 0.3425234 0.80442441 0 0 0 255
0.20769069 0.31888822 0.83391666 0 0 0 255
0.21787101 0.32388288 0.82743204 0 0 0 255
0.34703138 0.43126112 0.73619163 0 0 0 255
0.22647226 0.32881504 0.8218776 0 0 0 255
0.18467438 0.35422039 0.83956957 0 0 0 255
0.50559801 0.43008256 0.65050721 0 0 0 255
0.33627096 0.37995532 0.75234479 0 0 0 255
0.29208666 0.36145997 0.7800802 0 0 0 255
0.37474722 0.4397096 0.71987605 0 0 0 255
0.36051401 0.38886356 0.7376914 0 0 0 255
0.33552775 0.37978247 0.75307906 0 0 0 255
0.44259042 0.41011366 0.68906718 0 0 0 255
0.2371659 0.38383237 0.80574155 0 0 0 255
0.27372736 0.40213311 0.78238571 0 0 0 255
0.41093737 0.44924274 0.69866699 0 0 0 255
0.42873478 0.4078353 0.6975385 0 0 0 255
0.2042716 0.31768394 0.83725154 0 0 0 255
0.31085551 0.41853148 0.75965798 0 0 0 255
0.43546724 0.45488757 0.68492311 0 0 0 255
0.34825465 0.43217435 0.7367692 0 0 0 255
0.37854004 0.39501932 0.72770363 0 0 0 255
0.21238846 0.32172513 0.83244908 0 0 0 255
0.29166824 0.3616474 0.7815575 0 0 0 255
0.37795267 0.3949292 0.72822583 0 0 0 255
0.34492049 0.38358328 0.74839485 0 0 0 255
0.48145396 0.41995293 0.66727829 0 0 0 255
0.43907177 0.40997976 0.69225442 0 0 0 255
0.36895686 0.39239007 0.73379374 0 0 0 255
0.44558534 0.41122827 0.68868548 0 0 0 255
0.19388865 0.31299341 0.84465617 0 0 0 255
0.41359103 0.40447393 0.70744562 0 0 0 255
0.32945672 0.42555469 0.74894863 0 0 0 255
0.18455207 0.32204539 0.84816521 0 0 0 255
0.39434558 0.44561556 0.71001506 0 0 0 255
0.23439163 0.38264114 0.80924392 0 0 0 255
0.49494642 0.46508911 0.65169072 0 0 0 255
0.48524141 0.42121178 0.66567326 0 0 0 255
0.23849371 0.33566961 0.81644708 0 0 0 255
0.45116216 0.45863488 0.67683786 0 0 0 255
0.3185426 0.37429121 0.76547748 0 0 0 255
0.41903436 0.40607429 0.70478052 0 0 0 255
0.47301823 0.41823402 0.6731208 0 0 0 255
0.46538997 0.46169642 0.66870552 0 0 0 255
0.25203794 0.39245129 0.79817796 0 0 0 255
0.45922363 0.41488436 0.68138117 0 0 0 255
0.49766457 0.42455387 0.65867585 0 0 0 255
0.1777463 0.33366776 0.8502906 0 0 0 255
0.36566356 0.43822777 0.72769856 0 0 0 255
0.37876001 0.39563689 0.72902268 0 0 0 255
0.27189818 0.35264981 0.795542 0 0 0 255
0.35648379 0.43572724 0.73329753 0 0 0 255
0.31015235 0.37075141 0.77127028 0 0 0 255
0.35662898 0.38838845 0.74274707 0 0 0 255
0.2156294 0.32390046 0.83201146 0 0 0 255
0.33380207 0.38010854 0.75685132 0 0 0 255
0.29011148 0.36145926 0.78425354 0 0 0 255
0.32288525 0.37614369 0.76358247 0 0 0 255
0.39980561 0.40141466 0.71692759 0 0 0 255
0.48173553 0.42073902 0.66868377 0 0 0 255
0.19463937 0.31387356 0.84554595 0 0 0 255
0.40035045 0.40162832 0.71678066 0 0 0 255
0.31580839 0.37358138 0.76826245 0 0 0 255
0.26332545 0.34869865 0.80165219 0 0 0 255
0.39675486 0.4467667 0.70990402 0 0 0 255
0.35179472 0.38678098 0.74614912 0 0 0 255
0.40095317 0.40186483 0.71661854 0 0 0 255
0.43879867 0.41076761 0.69436157 0 0 0 255
0.42837444 0.40889531 0.70039386 0 0 0 255
0.4247582 0.40802634 0.70264554 0 0 0 255
0.349731 0.38613218 0.74770778 0 0 0 255
0.33535853 0.38090542 0.75654995 0 0 0 255
0.50696003 0.43038282 0.65371603 0 0 0 255
0.18668813 0.3568134 0.84212875 0 0 0 255
0.37220877 0.39434844 0.73411101 0 0 0 255
0.17525724 0.34941548 0.84985381 0 0 0 255
0.50183451 0.46404558 0.65005124 0 0 0 255
0.26954356 0.3519631 0.79844034 0 0 0 255
0.17787869 0.33543614 0.85145676 0 0 0 255
0.29985207 0.36639446 0.77926779 0 0 0 255
0.39263192 0.3999418 0.72233856 0 0 0 255
0.36631775 0.43902677 0.72892833 0 0 0 255
0.17849132 0.33463639 0.85145915 0 0 0 255
