ply
format ascii 1.0
comment PCL generated
element vertex 1103
property float x
property float y
property float z
property uchar red
property uchar green
property uchar blue
property uchar alpha
element camera 0
property float view_px
property float view_py
property float view_pz
property float x_axisx
property float x_axisy
property float x_axisz
property float y_axisx
property float y_axisy
property float y_axisz
property float z_axisx
property float z_axisy
property float z_axisz
property float focal
property float scalex
property float scaley
property float centerx
property float centery
property int viewportx
property int viewporty
property float k1
property float k2
end_header
0.054717124 0.23116329 0.57302988 0 0 0 255
0.052099809 0.21772632 0.57716823 0 0 0 255
0.30845582 0.30817243 0.42025658 0 0 0 255
0.17697178 0.29149488 0.49490175 0 0 0 255
0.23579134 0.31302354 0.45874959 0 0 0 255
0.27218086 0.32646617 0.43637851 0 0 0 255
0.36113143 0.32145983 0.38913223 0 0 0 255
0.053625166 0.21066239 0.57783771 0 0 0 255
0.27993554 0.32951489 0.43163276 0 0 0 255
0.34269512 0.34373346 0.39477915 0 0 0 255
0.16848627 0.28826839 0.50024557 0 0 0 255
0.27804694 0.29780629 0.43894255 0 0 0 255
0.25925717 0.32116383 0.44453663 0 0 0 255
0.1973013 0.29833913 0.48266903 0 0 0 255
0.28137639 0.32996142 0.43082801 0 0 0 255
0.05521673 0.20810774 0.57758379 0 0 0 255
0.48148555 0.17479575 0.35291666 0 0 0 255
0.36374119 0.32212299 0.38771105 0 0 0 255
0.17021185 0.25955936 0.50506908 0 0 0 255
0.27737063 0.32826295 0.43336925 0 0 0 255
0.18124297 0.29252812 0.4925921 0 0 0 255
0.12668328 0.2731562 0.52603626 0 0 0 255
0.34901226 0.3429181 0.39165068 0 0 0 255
0.093134463 0.22679062 0.55340421 0 0 0 255
0.22243133 0.27889943 0.47298345 0 0 0 255
0.25066221 0.31775057 0.45002678 0 0 0 255
0.26030886 0.32114658 0.44414428 0 0 0 255
0.27757946 0.32806936 0.43342447 0 0 0 255
0.17623644 0.29043564 0.49586654 0 0 0 255
0.12681696 0.27289295 0.52616554 0 0 0 255
0.22025563 0.3063474 0.46887106 0 0 0 255
0.33463341 0.3422969 0.3997421 0 0 0 255
0.30398902 0.30701056 0.42333749 0 0 0 255
0.10540979 0.26535365 0.53930175 0 0 0 255
0.21928446 0.27790195 0.4750466 0 0 0 255
0.067251295 0.020124294 0.60842603 0 0 0 255
0.17542085 0.26179194 0.5020386 0 0 0 255
0.27086705 0.2956354 0.44358331 0 0 0 255
0.1662814 0.25814578 0.50777137 0 0 0 255
0.19011071 0.29499504 0.48758987 0 0 0 255
0.3581486 0.33919054 0.38771319 0 0 0 255
0.067679971 0.21562284 0.56972325 0 0 0 255
0.28776172 0.33156043 0.42746118 0 0 0 255
0.13382906 0.24560122 0.52800179 0 0 0 255
0.12027532 0.24043694 0.53638971 0 0 0 255
0.091160782 0.25936458 0.54845256 0 0 0 255
0.22381599 0.27977359 0.4725031 0 0 0 255
0.20675822 0.27367577 0.48303503 0 0 0 255
0.32251355 0.33895051 0.40736458 0 0 0 255
0.15040442 0.25215495 0.51788682 0 0 0 255
0.48690405 0.17133982 0.35129738 0 0 0 255
0.18898444 0.29387689 0.48874313 0 0 0 255
0.082948796 0.25225997 0.55448657 0 0 0 255
0.21368405 0.32683024 0.46883959 0 0 0 255
0.18844388 0.29366824 0.4890855 0 0 0 255
0.34000215 0.34325188 0.39710274 0 0 0 255
0.31419218 0.33870441 0.41200382 0 0 0 255
0.12278658 0.27060965 0.52929276 0 0 0 255
0.15068266 0.25232646 0.51777381 0 0 0 255
0.27212465 0.32442734 0.43774909 0 0 0 255
0.1997104 0.27126443 0.48755091 0 0 0 255
0.26574165 0.29437837 0.44716439 0 0 0 255
0.2714214 0.32409191 0.4382166 0 0 0 255
0.10704802 0.26482153 0.5391075 0 0 0 255
0.30722785 0.33730477 0.41625285 0 0 0 255
0.17958486 0.26393166 0.50000656 0 0 0 255
0.12706859 0.24342391 0.53255326 0 0 0 255
0.34597486 0.3181538 0.39904109 0 0 0 255
0.15078956 0.27957714 0.5125556 0 0 0 255
0.34338379 0.31734443 0.40061772 0 0 0 255
0.33359641 0.31426626 0.40656048 0 0 0 255
0.34886712 0.3191196 0.39731976 0 0 0 255
0.16828109 0.25954849 0.50706434 0 0 0 255
0.21048655 0.30096945 0.47598907 0 0 0 255
0.10824048 0.26500857 0.53856146 0 0 0 255
0.16256961 0.2571584 0.51064038 0 0 0 255
0.08652129 0.2242575 0.55841422 0 0 0 255
0.26249042 0.31998909 0.44405136 0 0 0 255
0.2509023 0.31582806 0.45117009 0 0 0 255
0.30168396 0.33510378 0.41984934 0 0 0 255
0.052780375 0.22481012 0.57667834 0 0 0 255
0.069300756 0.015544675 0.60904044 0 0 0 255
0.17113124 0.28660634 0.50029653 0 0 0 255
0.37007695 0.32472765 0.38484824 0 0 0 255
0.080265589 0.24898183 0.55704546 0 0 0 255
0.069596857 0.21736856 0.56908315 0 0 0 255
0.088306844 0.22514975 0.5573979 0 0 0 255
0.13364442 0.27314335 0.5233379 0 0 0 255
0.082679793 0.22285746 0.56092316 0 0 0 255
0.25999513 0.29270452 0.45093694 0 0 0 255
0.18384233 0.2909511 0.49260595 0 0 0 255
0.097179785 0.26039013 0.54565734 0 0 0 255
0.11883928 0.24051452 0.53785473 0 0 0 255
0.1510559 0.25289938 0.51793861 0 0 0 255
0.32606059 0.33810556 0.40617603 0 0 0 255
0.27214721 0.3235907 0.4382956 0 0 0 255
0.083648145 0.25151563 0.55480093 0 0 0 255
0.11868868 0.26824728 0.53249049 0 0 0 255
0.053073063 0.21882355 0.57795727 0 0 0 255
0.27689743 0.29864326 0.44077128 0 0 0 255
0.21756226 0.27823079 0.47703484 0 0 0 255
0.32532963 0.33781746 0.40680489 0 0 0 255
0.10339218 0.26232427 0.54213673 0 0 0 255
0.21681446 0.30237591 0.4727048 0 0 0 255
0.13950977 0.27441901 0.52017897 0 0 0 255
0.36258632 0.32381687 0.38946062 0 0 0 255
0.20657237 0.33595353 0.47175723 0 0 0 255
0.28458744 0.32797611 0.43101662 0 0 0 255
0.1934043 0.26955935 0.49203661 0 0 0 255
0.16966616 0.2850253 0.50187814 0 0 0 255
0.29270464 0.30430186 0.4313283 0 0 0 255
0.24395421 0.31206605 0.45625255 0 0 0 255
0.29971704 0.30675063 0.42706466 0 0 0 255
0.33668023 0.34106711 0.40024018 0 0 0 255
0.18565699 0.31823322 0.486689 0 0 0 255
0.077452838 0.008458294 0.60656136 0 0 0 255
0.17868602 0.2880314 0.49647039 0 0 0 255
0.34082192 0.3422085 0.397816 0 0 0 255
0.23007546 0.30672738 0.46492565 0 0 0 255
0.066818774 0.023149952 0.60949975 0 0 0 255
0.068153203 0.2431604 0.56533462 0 0 0 255
0.2565397 0.31631175 0.44869688 0 0 0 255
0.35558668 0.32206306 0.3938497 0 0 0 255
0.12375905 0.26883256 0.53013682 0 0 0 255
0.21322697 0.30013472 0.47548881 0 0 0 255
0.48172081 0.1724689 0.35508636 0 0 0 255
0.13426235 0.27179527 0.52402526 0 0 0 255
0.22088705 0.27988327 0.47544295 0 0 0 255
0.12537307 0.26896793 0.52942258 0 0 0 255
0.053393766 0.22430386 0.57731593 0 0 0 255
0.34386882 0.34158346 0.39658374 0 0 0 255
0.1393984 0.27328545 0.52100235 0 0 0 255
0.11902098 0.26681224 0.53334653 0 0 0 255
0.19106033 0.29164168 0.48938212 0 0 0 255
0.083061293 0.22413275 0.56137919 0 0 0 255
0.076572277 0.24587311 0.56062496 0 0 0 255
0.092937879 0.25693655 0.54956377 0 0 0 255
0.2312471 0.28376874 0.46924132 0 0 0 255
0.070704624 0.24354698 0.56429315 0 0 0 255
0.064945206 0.23988792 0.56817037 0 0 0 255
0.21440792 0.29978976 0.47526371 0 0 0 255
0.23571165 0.28547198 0.46659717 0 0 0 255
0.28834021 0.32806063 0.42963779 0 0 0 255
0.087053083 0.25186682 0.55389142 0 0 0 255
0.095511526 0.2576248 0.54818481 0 0 0 255
0.085444979 0.25048965 0.5550645 0 0 0 255
0.067416444 0.21781592 0.57132989 0 0 0 255
0.21464282 0.29953206 0.47533977 0 0 0 255
0.10814527 0.26234159 0.54047322 0 0 0 255
0.17828616 0.28638703 0.49768254 0 0 0 255
0.064632624 0.23913726 0.5687021 0 0 0 255
0.13609406 0.24817638 0.52817184 0 0 0 255
0.20332426 0.29506981 0.48245716 0 0 0 255
0.13244626 0.24682081 0.5304687 0 0 0 255
0.12737742 0.24488744 0.53360379 0 0 0 255
0.30676353 0.33416179 0.41867167 0 0 0 255
0.057916492 0.21327594 0.57755518 0 0 0 255
0.29389602 0.32970771 0.42655072 0 0 0 255
0.36819693 0.32885912 0.38645589 0 0 0 255
0.29157794 0.32873541 0.42804798 0 0 0 255
0.25533664 0.31390721 0.4507035 0 0 0 255
0.092025973 0.22857279 0.55616361 0 0 0 255
0.14906733 0.27517819 0.51602072 0 0 0 255
0.30160803 0.33209872 0.42202786 0 0 0 255
0.14180486 0.27273235 0.52044708 0 0 0 255
0.33445475 0.33888513 0.40289384 0 0 0 255
0.095359899 0.25676984 0.54883975 0 0 0 255
0.062039346 0.23581395 0.57108027 0 0 0 255
0.18695566 0.26817957 0.49698171 0 0 0 255
0.3226718 0.33562747 0.41004014 0 0 0 255
0.30627233 0.31003451 0.42399138 0 0 0 255
0.062558711 0.23618855 0.57080764 0 0 0 255
0.15792878 0.27808732 0.51080573 0 0 0 255
0.14812231 0.25318635 0.52106494 0 0 0 255
0.27801931 0.3003431 0.44129336 0 0 0 255
0.14895883 0.2746779 0.51638174 0 0 0 255
0.34365988 0.31971726 0.40186679 0 0 0 255
0.20758881 0.29571834 0.48043501 0 0 0 255
0.062457606 0.23595637 0.5709722 0 0 0 255
0.075808927 0.24450475 0.56204647 0 0 0 255
0.15567058 0.25615361 0.51644188 0 0 0 255
0.096878476 0.25693497 0.5481959 0 0 0 255
0.23234454 0.30489141 0.46524245 0 0 0 255
0.35252196 0.33973536 0.39317131 0 0 0 255
0.082929872 0.22506219 0.5620715 0 0 0 255
0.087027602 0.22677739 0.55953282 0 0 0 255
0.35412997 0.33952239 0.39238146 0 0 0 255
0.21852145 0.29945862 0.47392413 0 0 0 255
0.18508042 0.26769689 0.49833953 0 0 0 255
0.14567122 0.25242144 0.52274954 0 0 0 255
0.2331412 0.28522724 0.4688423 0 0 0 255
0.24059182 0.3076418 0.46037623 0 0 0 255
0.11536762 0.24082799 0.54151285 0 0 0 255
0.19594939 0.27174491 0.49169919 0 0 0 255
0.30491701 0.33232516 0.42065942 0 0 0 255
0.35246795 0.33952683 0.39345533 0 0 0 255
0.15565589 0.2764796 0.5126943 0 0 0 255
0.33491758 0.31732744 0.40739787 0 0 0 255
0.16937454 0.28141752 0.5043121 0 0 0 255
0.25988245 0.29444709 0.45263824 0 0 0 255
0.19649076 0.29096144 0.48772874 0 0 0 255
0.18702491 0.2875163 0.49359083 0 0 0 255
0.070013091 0.22006667 0.57039165 0 0 0 255
0.22495736 0.30133036 0.47030205 0 0 0 255
0.29973421 0.33025348 0.42403162 0 0 0 255
0.21596843 0.29792908 0.47586355 0 0 0 255
0.32272875 0.33484495 0.41065973 0 0 0 255
0.36028141 0.32533669 0.39221191 0 0 0 255
0.31844252 0.33469117 0.41307181 0 0 0 255
0.27041143 0.29819679 0.44635186 0 0 0 255
0.20183755 0.27414685 0.48830745 0 0 0 255
0.35894638 0.33787218 0.39050835 0 0 0 255
0.26226074 0.31485251 0.44753334 0 0 0 255
0.10685934 0.2597568 0.54274082 0 0 0 255
0.3257803 0.33486494 0.40916532 0 0 0 255
0.11823907 0.26361486 0.53584021 0 0 0 255
0.29454219 0.32797587 0.42750841 0 0 0 255
0.18911505 0.28771719 0.49265668 0 0 0 255
0.2923252 0.30584046 0.43309173 0 0 0 255
0.27778807 0.300843 0.44196513 0 0 0 255
0.16750325 0.28003076 0.50592506 0 0 0 255
0.07984858 0.24507922 0.56043094 0 0 0 255
0.079082683 0.0054690987 0.60818183 0 0 0 255
0.34699202 0.32168591 0.4004142 0 0 0 255
0.31649977 0.33421367 0.41450372 0 0 0 255
0.36545241 0.3270027 0.38937432 0 0 0 255
0.29155129 0.30571955 0.43369919 0 0 0 255
0.13444439 0.26836041 0.52631819 0 0 0 255
0.13685916 0.24958187 0.52872306 0 0 0 255
0.06190443 0.21704893 0.5758251 0 0 0 255
0.14350918 0.27107722 0.52092326 0 0 0 255
0.36661404 0.332183 0.38783461 0 0 0 255
0.13955325 0.26975912 0.52336878 0 0 0 255
0.22954373 0.30189699 0.46821082 0 0 0 255
0.0871488 0.22784011 0.56008577 0 0 0 255
0.31009698 0.33281779 0.41841832 0 0 0 255
0.1411626 0.25135756 0.52616501 0 0 0 255
0.077704236 0.24389456 0.56206793 0 0 0 255
0.084677435 0.22686265 0.56165224 0 0 0 255
0.24881054 0.29140124 0.45987174 0 0 0 255
0.06411007 0.2357877 0.57105738 0 0 0 255
0.36214161 0.3265022 0.39148101 0 0 0 255
0.20973304 0.2774685 0.48385862 0 0 0 255
0.33793586 0.33838814 0.40229318 0 0 0 255
0.30925569 0.33223075 0.41914523 0 0 0 255
0.31399608 0.33358979 0.41635618 0 0 0 255
0.33246279 0.33633202 0.40581393 0 0 0 255
0.089642718 0.24974245 0.55466753 0 0 0 255
0.074452832 0.019722678 0.60832727 0 0 0 255
0.4882361 0.15726033 0.3567034 0 0 0 255
0.35114282 0.32353774 0.39824781 0 0 0 255
0.31084719 0.3325077 0.41836667 0 0 0 255
0.074063182 0.22283837 0.56848788 0 0 0 255
0.059722885 0.23067202 0.57472599 0 0 0 255
0.19398355 0.28807104 0.49055424 0 0 0 255
0.075796053 0.22358812 0.56742942 0 0 0 255
0.13355957 0.24871869 0.53113919 0 0 0 255
0.31741238 0.33339152 0.41470015 0 0 0 255
0.34301075 0.32116795 0.40328649 0 0 0 255
0.088239938 0.24806473 0.55598319 0 0 0 255
0.18659301 0.26929897 0.4984372 0 0 0 255
0.19086127 0.28647998 0.49278042 0 0 0 255
0.24236199 0.30535486 0.46116924 0 0 0 255
0.058143348 0.21594973 0.57878 0 0 0 255
0.30342525 0.31051949 0.42707914 0 0 0 255
0.11864193 0.24330242 0.54061824 0 0 0 255
0.36437291 0.32789844 0.39060318 0 0 0 255
0.099741735 0.25499588 0.54856724 0 0 0 255
0.32882485 0.31703085 0.4120611 0 0 0 255
0.34136549 0.33867678 0.40099472 0 0 0 255
0.1869754 0.28467527 0.49543807 0 0 0 255
0.26796874 0.31482601 0.44556043 0 0 0 255
0.17105544 0.26376441 0.50830102 0 0 0 255
0.072230756 0.01194302 0.61164033 0 0 0 255
0.11698317 0.26085961 0.53821319 0 0 0 255
0.1993437 0.33548278 0.47879761 0 0 0 255
0.2340451 0.30166543 0.46666136 0 0 0 255
0.2197687 0.29628855 0.47547826 0 0 0 255
0.33370227 0.31881046 0.40929171 0 0 0 255
0.3398959 0.3208507 0.40558827 0 0 0 255
0.29811984 0.32669148 0.42710173 0 0 0 255
0.073605366 0.24089468 0.56584853 0 0 0 255
0.10370159 0.25588804 0.54656315 0 0 0 255
0.11597057 0.26019347 0.53905988 0 0 0 255
0.26357001 0.31238022 0.448715 0 0 0 255
0.28292993 0.30378264 0.4399111 0 0 0 255
0.083205774 0.24456486 0.55996704 0 0 0 255
0.16532432 0.27628869 0.50915629 0 0 0 255
0.31375706 0.33205587 0.41762924 0 0 0 255
0.084051535 0.24487132 0.55946386 0 0 0 255
0.27383116 0.31653073 0.44238654 0 0 0 255
0.20181836 0.27542189 0.48958045 0 0 0 255
0.10379685 0.25571111 0.5466547 0 0 0 255
0.12057526 0.26144183 0.53643078 0 0 0 255
0.31673554 0.31537801 0.41941965 0 0 0 255
0.27082679 0.31507385 0.4443996 0 0 0 255
0.17022011 0.27772 0.5063659 0 0 0 255
0.28822869 0.32221773 0.43356287 0 0 0 255
0.11195941 0.25844041 0.5418064 0 0 0 255
0.30836019 0.31275481 0.42454827 0 0 0 255
0.14217819 0.26802534 0.52354097 0 0 0 255
0.1354637 0.26589778 0.52761644 0 0 0 255
0.12206379 0.26156807 0.53577113 0 0 0 255
0.25634632 0.30878323 0.45361751 0 0 0 255
0.064991415 0.23415223 0.5721848 0 0 0 255
0.09003783 0.24749693 0.5559653 0 0 0 255
0.32462683 0.3170436 0.41497263 0 0 0 255
0.20738579 0.29035038 0.48393956 0 0 0 255
0.065145046 0.23410645 0.57221377 0 0 0 255
0.25684559 0.30872387 0.45348275 0 0 0 255
0.26239267 0.31101304 0.45003149 0 0 0 255
0.27821666 0.30254784 0.44313198 0 0 0 255
0.06101495 0.21856788 0.57757592 0 0 0 255
0.35496867 0.33712107 0.39470369 0 0 0 255
0.058975369 0.22752506 0.57694393 0 0 0 255
0.30984521 0.32981929 0.4206562 0 0 0 255
0.35665613 0.32671529 0.39590913 0 0 0 255
0.18230537 0.28115308 0.49950299 0 0 0 255
0.32325011 0.33149379 0.41316512 0 0 0 255
0.239877 0.30203623 0.46422553 0 0 0 255
0.30181855 0.32677728 0.42574108 0 0 0 255
0.34961718 0.3375214 0.39770067 0 0 0 255
0.3567487 0.32688573 0.39594284 0 0 0 255
0.31562963 0.3156732 0.4204964 0 0 0 255
0.25526437 0.29495394 0.4573676 0 0 0 255
0.12809387 0.26257187 0.53276104 0 0 0 255
0.1568356 0.2714889 0.51545709 0 0 0 255
0.076825231 0.01518207 0.60948312 0 0 0 255
0.13937619 0.26598802 0.52603275 0 0 0 255
0.10076986 0.25302857 0.54959589 0 0 0 255
0.336725 0.32093841 0.40818602 0 0 0 255
0.20597479 0.27767023 0.48773 0 0 0 255
0.1614351 0.26091492 0.51521504 0 0 0 255
0.14193985 0.26646581 0.52470696 0 0 0 255
0.13000345 0.26265836 0.53196645 0 0 0 255
0.16080759 0.27239043 0.51335919 0 0 0 255
0.16684365 0.27460718 0.50965649 0 0 0 255
0.090764694 0.24619745 0.55661476 0 0 0 255
0.35703772 0.33626348 0.39438397 0 0 0 255
0.10356885 0.25359949 0.54822135 0 0 0 255
0.18278882 0.26929742 0.50215358 0 0 0 255
0.36342973 0.3294152 0.39228621 0 0 0 255
0.19302475 0.28358284 0.49381167 0 0 0 255
0.064236879 0.23156539 0.57401079 0 0 0 255
0.3677713 0.33041155 0.38984904 0 0 0 255
0.11237302 0.25630277 0.54311299 0 0 0 255
0.24040525 0.30067134 0.46489796 0 0 0 255
0.062752977 0.2204224 0.57716513 0 0 0 255
0.10878383 0.25503668 0.54536319 0 0 0 255
0.28849316 0.31973743 0.43511915 0 0 0 255
0.30373973 0.32587731 0.42566258 0 0 0 255
0.28398696 0.31782934 0.43797624 0 0 0 255
0.25571701 0.30604434 0.45565179 0 0 0 255
0.15073098 0.26820856 0.52008861 0 0 0 255
0.24775569 0.30307364 0.4605729 0 0 0 255
0.15097484 0.26825893 0.51995909 0 0 0 255
0.32837516 0.33177587 0.41118598 0 0 0 255
0.28701481 0.31894523 0.436167 0 0 0 255
0.10334615 0.2388618 0.55165756 0 0 0 255
0.17789149 0.27728742 0.50369018 0 0 0 255
0.24779624 0.29328355 0.46261615 0 0 0 255
0.35255092 0.33624521 0.39731929 0 0 0 255
0.20845178 0.2879903 0.48504472 0 0 0 255
0.30399638 0.32553157 0.42580199 0 0 0 255
0.34189689 0.33610696 0.40316752 0 0 0 255
0.19698107 0.32267201 0.48445547 0 0 0 255
0.066167668 0.23266169 0.57320487 0 0 0 255
0.061264306 0.2201568 0.57834268 0 0 0 255
0.12261086 0.25884742 0.53742617 0 0 0 255
0.17048119 0.27442521 0.5083856 0 0 0 255
0.077562481 0.22729047 0.56817389 0 0 0 255
0.19498347 0.32217377 0.48575318 0 0 0 255
0.13413417 0.26231176 0.53060126 0 0 0 255
0.28390756 0.31698492 0.43856573 0 0 0 255
0.31916505 0.31763682 0.41933879 0 0 0 255
0.075152673 0.23877032 0.56730688 0 0 0 255
0.14223108 0.26469204 0.52581429 0 0 0 255
0.10857769 0.24145189 0.54867715 0 0 0 255
0.1489892 0.26673532 0.52177984 0 0 0 255
0.056832969 0.21897319 0.5812189 0 0 0 255
0.056689322 0.21960184 0.58118296 0 0 0 255
0.086011991 0.23098069 0.56303442 0 0 0 255
0.21389876 0.28141084 0.48370054 0 0 0 255
0.15995853 0.27003792 0.51524103 0 0 0 255
0.27138996 0.31141853 0.44662538 0 0 0 255
0.15441529 0.26825839 0.51862144 0 0 0 255
0.32702249 0.33052284 0.41273245 0 0 0 255
0.35241735 0.33580697 0.39792919 0 0 0 255
0.12817514 0.25983074 0.53460944 0 0 0 255
0.28738168 0.31776792 0.43682069 0 0 0 255
0.062498167 0.22122546 0.5778963 0 0 0 255
0.11651257 0.25599468 0.54173046 0 0 0 255
0.48809794 0.16123736 0.35886386 0 0 0 255
0.32138139 0.32906035 0.41618219 0 0 0 255
0.29814678 0.32186043 0.43030506 0 0 0 255
0.13078444 0.25025302 0.53524768 0 0 0 255
0.29507422 0.32058114 0.4322387 0 0 0 255
0.32367149 0.3290821 0.41505322 0 0 0 255
0.30852681 0.32594398 0.4239105 0 0 0 255
0.19038832 0.27307549 0.49844292 0 0 0 255
0.20832838 0.27967998 0.48740679 0 0 0 255
0.10274921 0.25096485 0.55036205 0 0 0 255
0.087447219 0.24292946 0.56025422 0 0 0 255
0.20023867 0.3370035 0.48050037 0 0 0 255
0.25740457 0.30486715 0.45584339 0 0 0 255
0.11115 0.24282329 0.54744619 0 0 0 255
0.069097981 0.22441518 0.57393175 0 0 0 255
0.3495121 0.33578241 0.39984506 0 0 0 255
0.073643088 0.02599977 0.61069548 0 0 0 255
0.36224565 0.33436006 0.39327478 0 0 0 255
0.16310614 0.27001342 0.51403379 0 0 0 255
0.29244328 0.31902629 0.43419993 0 0 0 255
0.25365007 0.30295485 0.4584198 0 0 0 255
0.21264771 0.28142357 0.48492274 0 0 0 255
0.079396933 0.23947105 0.56552351 0 0 0 255
0.082091846 0.24038726 0.56397355 0 0 0 255
0.16556111 0.26401165 0.51404953 0 0 0 255
0.32347909 0.31922483 0.41747653 0 0 0 255
0.087753467 0.24253485 0.56051999 0 0 0 255
0.31737027 0.32817936 0.41905159 0 0 0 255
0.2095878 0.32801405 0.47758612 0 0 0 255
0.1329097 0.26008999 0.53260636 0 0 0 255
0.27522933 0.31147298 0.44525036 0 0 0 255
0.24015127 0.29730645 0.46714255 0 0 0 255
0.23130086 0.29392532 0.47263896 0 0 0 255
0.25536779 0.29684785 0.45900816 0 0 0 255
0.17702277 0.27423593 0.50598842 0 0 0 255
0.1003931 0.24897888 0.55257952 0 0 0 255
0.3340371 0.32251963 0.41132182 0 0 0 255
0.16135558 0.26863435 0.51566362 0 0 0 255
0.088930003 0.24262501 0.56011784 0 0 0 255
0.15170392 0.26554853 0.52154076 0 0 0 255
0.21409044 0.28230205 0.48439044 0 0 0 255
0.19201729 0.27928722 0.49696386 0 0 0 255
0.24543114 0.29359999 0.46518168 0 0 0 255
0.27556795 0.31105584 0.4454087 0 0 0 255
0.14647552 0.26376772 0.52479964 0 0 0 255
0.09640526 0.23653623 0.55734336 0 0 0 255
0.29734775 0.3199164 0.43187949 0 0 0 255
0.31300002 0.32601786 0.42222679 0 0 0 255
0.13217041 0.25914723 0.53353983 0 0 0 255
0.1386701 0.26116884 0.52962369 0 0 0 255
0.11389413 0.24455169 0.5463779 0 0 0 255
0.23594032 0.29492405 0.4702518 0 0 0 255
0.10841346 0.25129196 0.54807365 0 0 0 255
0.26856869 0.30768001 0.45008636 0 0 0 255
0.19087748 0.27401882 0.4988929 0 0 0 255
0.11703548 0.25397032 0.54291725 0 0 0 255
0.3151831 0.31780234 0.42284417 0 0 0 255
0.3474158 0.33516747 0.40194038 0 0 0 255
0.28716281 0.31524667 0.43857449 0 0 0 255
0.36224908 0.33355379 0.39423507 0 0 0 255
0.067815453 0.2311984 0.57419652 0 0 0 255
0.11027069 0.25162014 0.54713356 0 0 0 255
0.11900679 0.25439742 0.54186541 0 0 0 255
0.14913067 0.25826618 0.52477115 0 0 0 255
0.075094797 0.23664266 0.56920785 0 0 0 255
0.067823291 0.22503325 0.57546782 0 0 0 255
0.066673726 0.22981727 0.57518613 0 0 0 255
0.23145096 0.28893608 0.47411922 0 0 0 255
0.18653867 0.27630132 0.50099498 0 0 0 255
0.26522401 0.30077031 0.45350131 0 0 0 255
0.24661018 0.29444849 0.46487498 0 0 0 255
0.13423185 0.2589654 0.53286606 0 0 0 255
0.12332711 0.25545338 0.53947783 0 0 0 255
0.14314151 0.2561 0.52861297 0 0 0 255
0.092790253 0.24319039 0.55855954 0 0 0 255
0.17115079 0.26700199 0.51135808 0 0 0 255
0.16532689 0.26476401 0.51497251 0 0 0 255
0.18974917 0.27700388 0.49930662 0 0 0 255
0.12317013 0.2551133 0.5397715 0 0 0 255
0.22166345 0.28844017 0.47977573 0 0 0 255
0.15699966 0.26571229 0.51936853 0 0 0 255
0.3377403 0.33189335 0.40824932 0 0 0 255
0.35677278 0.33374357 0.39756438 0 0 0 255
0.10039249 0.24737233 0.55371147 0 0 0 255
0.13508724 0.25317642 0.53376925 0 0 0 255
0.35677305 0.33058873 0.39822957 0 0 0 255
0.33278334 0.33010018 0.41137543 0 0 0 255
0.34314868 0.32651281 0.40648821 0 0 0 255
0.29436961 0.31707978 0.4348155 0 0 0 255
0.29425842 0.31104892 0.43607429 0 0 0 255
0.084666505 0.23969024 0.56388581 0 0 0 255
0.31818894 0.32629573 0.42013609 0 0 0 255
0.18513715 0.27482519 0.50248462 0 0 0 255
0.29627943 0.31765443 0.43376032 0 0 0 255
0.21199146 0.28245944 0.48657468 0 0 0 255
0.30885178 0.32242277 0.42615831 0 0 0 255
0.10183885 0.24057668 0.55464846 0 0 0 255
0.20958874 0.28162718 0.48809043 0 0 0 255
0.16498536 0.26733652 0.515145 0 0 0 255
0.25315347 0.2993136 0.46100575 0 0 0 255
0.29786661 0.31781235 0.43309587 0 0 0 255
0.33879596 0.32561812 0.40942499 0 0 0 255
0.31342033 0.32392502 0.42354912 0 0 0 255
0.28500599 0.31231514 0.44128311 0 0 0 255
0.30704218 0.3212719 0.42756143 0 0 0 255
0.09106002 0.23583564 0.56160867 0 0 0 255
0.22008908 0.2864345 0.4816502 0 0 0 255
0.29986557 0.31824425 0.43210417 0 0 0 255
0.076238148 0.23569483 0.56973439 0 0 0 255
0.22001642 0.28558978 0.48188934 0 0 0 255
0.29434097 0.31157225 0.43647766 0 0 0 255
0.25986385 0.30129549 0.45735249 0 0 0 255
0.2686215 0.30289757 0.4523136 0 0 0 255
0.23377329 0.2907528 0.47365782 0 0 0 255
0.18819194 0.2742092 0.50170469 0 0 0 255
0.30886418 0.32121208 0.42695907 0 0 0 255
0.25424793 0.29807475 0.46116686 0 0 0 255
0.25925279 0.30072862 0.4579412 0 0 0 255
0.33775908 0.32586905 0.41041216 0 0 0 255
0.1865999 0.32356307 0.49290875 0 0 0 255
0.27139032 0.30400899 0.45077538 0 0 0 255
0.24627811 0.29537466 0.46610567 0 0 0 255
0.33983538 0.33114102 0.40829936 0 0 0 255
0.14288668 0.25909483 0.52941108 0 0 0 255
0.13943647 0.25799328 0.53151089 0 0 0 255
0.12486462 0.25022539 0.54096663 0 0 0 255
0.35791501 0.33225459 0.39837265 0 0 0 255
0.16281834 0.26520425 0.51745516 0 0 0 255
0.13170922 0.25300866 0.53689241 0 0 0 255
0.096128792 0.23883961 0.55901593 0 0 0 255
0.26855028 0.30347484 0.45287931 0 0 0 255
0.070265859 0.22833869 0.57532692 0 0 0 255
0.1904761 0.33432984 0.48918933 0 0 0 255
0.35535091 0.33235902 0.4001407 0 0 0 255
0.092518605 0.23764065 0.56144625 0 0 0 255
0.079029188 0.014818303 0.61280942 0 0 0 255
0.10479689 0.2457685 0.55325371 0 0 0 255
0.31040442 0.31807211 0.42752767 0 0 0 255
0.21348146 0.34115207 0.47557855 0 0 0 255
0.0805749 0.23573434 0.56851155 0 0 0 255
0.097603567 0.24237032 0.55796772 0 0 0 255
0.34563133 0.33203736 0.40573409 0 0 0 255
0.1002333 0.2432552 0.5564909 0 0 0 255
0.30480272 0.31703499 0.43116835 0 0 0 255
0.20327698 0.32658297 0.48436391 0 0 0 255
0.10140058 0.24359213 0.55602419 0 0 0 255
0.21642032 0.33905002 0.47477809 0 0 0 255
0.33353388 0.32745188 0.41355315 0 0 0 255
0.086960219 0.23757833 0.56512874 0 0 0 255
0.48571378 0.17633465 0.36090261 0 0 0 255
0.10050557 0.24181488 0.55701387 0 0 0 255
0.49452201 0.16299728 0.35885733 0 0 0 255
0.10149124 0.24310583 0.55632627 0 0 0 255
0.10236489 0.24331123 0.55587518 0 0 0 255
0.32772648 0.32494783 0.41758168 0 0 0 255
0.35002822 0.33168992 0.40419692 0 0 0 255
0.07846649 0.017660417 0.61356688 0 0 0 255
0.07236509 0.020871542 0.61707395 0 0 0 255
0.079066366 0.0054631382 0.61669004 0 0 0 255
0.073396474 0.026268162 0.61580354 0 0 0 255
0.49012566 0.16245285 0.36293969 0 0 0 255
0.20718026 0.34099001 0.48120448 0 0 0 255
0.48627263 0.17346337 0.36319435 0 0 0 255
0.21337 0.33224419 0.48008832 0 0 0 255
0.18534502 0.32932624 0.49614191 0 0 0 255
0.2065732 0.34116274 0.48287579 0 0 0 255
0.21718483 0.33563074 0.47829545 0 0 0 255
0.18928279 0.32481542 0.49559832 0 0 0 255
0.081756338 0.0064421818 0.61730331 0 0 0 255
0.077706203 0.024226435 0.61618334 0 0 0 255
0.20790023 0.34178469 0.48298091 0 0 0 255
0.4944014 0.16889678 0.36220133 0 0 0 255
0.077912658 0.010361061 0.61983931 0 0 0 255
0.49721754 0.1618755 0.36263144 0 0 0 255
0.49612266 0.16553566 0.36302298 0 0 0 255
0.080268562 0.005900681 0.62051934 0 0 0 255
0.4948715 0.17010981 0.36370552 0 0 0 255
0.083912492 0.010626636 0.61820102 0 0 0 255
0.49416789 0.17217171 0.36378285 0 0 0 255
0.079066545 0.024218291 0.6183629 0 0 0 255
0.49001828 0.1693293 0.3668921 0 0 0 255
0.21243574 0.34392336 0.48338872 0 0 0 255
0.21504632 0.34468037 0.481841 0 0 0 255
0.49122414 0.17834017 0.36601442 0 0 0 255
0.18822977 0.33498082 0.49947625 0 0 0 255
0.081112862 0.0073613077 0.62322479 0 0 0 255
0.48974821 0.17780298 0.36951655 0 0 0 255
0.49800849 0.16761105 0.36738116 0 0 0 255
0.48982465 0.17584552 0.37048584 0 0 0 255
0.081145138 0.025266498 0.62231314 0 0 0 255
0.084275842 0.017320171 0.62269628 0 0 0 255
0.07895948 0.018119551 0.62605429 0 0 0 255
0.49252465 0.1703507 0.3716411 0 0 0 255
0.21586841 0.346531 0.48741645 0 0 0 255
0.22141778 0.34220275 0.48533681 0 0 0 255
0.49497622 0.17955771 0.3695524 0 0 0 255
0.20210196 0.34255898 0.49651107 0 0 0 255
0.078258708 0.02224987 0.62734288 0 0 0 255
0.081932336 0.012511604 0.62755042 0 0 0 255
0.080278486 0.028772935 0.62532932 0 0 0 255
0.49870676 0.17115551 0.37066203 0 0 0 255
0.20088865 0.33099827 0.50078821 0 0 0 255
0.078801572 0.021977566 0.62805539 0 0 0 255
0.078246593 0.024080597 0.62839323 0 0 0 255
0.088487998 0.010815784 0.62565857 0 0 0 255
0.19148308 0.33827001 0.50526285 0 0 0 255
0.50257003 0.16179487 0.37141514 0 0 0 255
0.082648709 0.013507955 0.62928301 0 0 0 255
0.1980509 0.34136748 0.50199664 0 0 0 255
0.21174271 0.34649 0.4941994 0 0 0 255
0.21108778 0.34632501 0.49467623 0 0 0 255
0.22193834 0.34678876 0.48971903 0 0 0 255
0.084256873 0.012362853 0.63119602 0 0 0 255
0.085373729 0.0094180629 0.63126832 0 0 0 255
0.089736372 0.012617365 0.62871587 0 0 0 255
0.084062696 0.028246276 0.62873942 0 0 0 255
0.083498508 0.029944904 0.62916023 0 0 0 255
0.088768452 0.015902825 0.62908185 0 0 0 255
0.19743228 0.34188917 0.50619769 0 0 0 255
0.49559206 0.17992991 0.37659433 0 0 0 255
0.079475835 0.028076313 0.63270217 0 0 0 255
0.087752193 0.008624427 0.63218164 0 0 0 255
0.50016427 0.17526963 0.37553784 0 0 0 255
0.20348281 0.34475076 0.50317568 0 0 0 255
0.49821565 0.16625671 0.37857291 0 0 0 255
0.50512302 0.16053015 0.37641478 0 0 0 255
0.20522234 0.34571347 0.502976 0 0 0 255
0.24568515 0.32311457 0.48610762 0 0 0 255
0.19298954 0.33820295 0.51220024 0 0 0 255
0.25677639 0.3259244 0.48035088 0 0 0 255
0.20187406 0.34455097 0.50666088 0 0 0 255
0.2582812 0.32633939 0.47978744 0 0 0 255
0.22402507 0.34869936 0.49403584 0 0 0 255
0.25354955 0.32536861 0.48289979 0 0 0 255
0.19829571 0.33259401 0.51147956 0 0 0 255
0.082042411 0.025635175 0.63539678 0 0 0 255
0.49922991 0.16782068 0.38118571 0 0 0 255
0.49994275 0.18076479 0.37847245 0 0 0 255
0.22456811 0.34897637 0.49483338 0 0 0 255
0.2011005 0.3446103 0.5090794 0 0 0 255
0.15771216 0.28669703 0.54451352 0 0 0 255
0.087707117 0.02736336 0.6340754 0 0 0 255
0.22334862 0.35077921 0.496631 0 0 0 255
0.2892136 0.33393204 0.46444035 0 0 0 255
0.21924891 0.31426647 0.50629437 0 0 0 255
0.23381896 0.31959093 0.49745271 0 0 0 255
0.50612056 0.16640365 0.38004166 0 0 0 255
0.27760378 0.33150423 0.47189319 0 0 0 255
0.091630116 0.018255807 0.63505197 0 0 0 255
0.23968419 0.32193395 0.49491179 0 0 0 255
0.22356391 0.35152191 0.49788365 0 0 0 255
0.22634311 0.34632364 0.49742106 0 0 0 255
0.24251217 0.32308748 0.493808 0 0 0 255
0.14253618 0.27916527 0.55679095 0 0 0 255
0.086889341 0.018448755 0.63897967 0 0 0 255
0.30436257 0.33791345 0.45797932 0 0 0 255
0.27627659 0.33165616 0.47446793 0 0 0 255
0.30080071 0.33716342 0.46024483 0 0 0 255
0.14180085 0.27891636 0.55822188 0 0 0 255
0.49910048 0.17463166 0.38506246 0 0 0 255
0.25707367 0.32754225 0.48640063 0 0 0 255
0.084936187 0.025071844 0.63971406 0 0 0 255
0.19822671 0.33504781 0.51704717 0 0 0 255
0.280862 0.33290207 0.47267577 0 0 0 255
0.50338918 0.17809334 0.38255489 0 0 0 255
0.16813648 0.29269162 0.54199755 0 0 0 255
0.2117555 0.31229195 0.51473707 0 0 0 255
0.094884709 0.013431206 0.63745844 0 0 0 255
0.50866455 0.16459399 0.38315248 0 0 0 255
0.29578778 0.33644539 0.46478775 0 0 0 255
0.187756 0.30297416 0.5300566 0 0 0 255
0.086496919 0.031036198 0.63869029 0 0 0 255
0.20326366 0.30929029 0.52040797 0 0 0 255
0.1696955 0.29360974 0.54177684 0 0 0 255
0.13628405 0.27617496 0.56367493 0 0 0 255
0.20544659 0.33649346 0.51438463 0 0 0 255
0.2084612 0.33748481 0.51307422 0 0 0 255
0.21325216 0.33891594 0.51042837 0 0 0 255
0.15173693 0.28452235 0.55504638 0 0 0 255
0.31767172 0.3410669 0.45388222 0 0 0 255
0.14958353 0.28341419 0.55650419 0 0 0 255
0.50502706 0.17737767 0.38482773 0 0 0 255
0.090624213 0.01357121 0.64212632 0 0 0 255
0.16328481 0.29058424 0.54808778 0 0 0 255
0.16389224 0.29091579 0.54781336 0 0 0 255
0.25111103 0.3270787 0.4933705 0 0 0 255
0.19657186 0.34117272 0.52023113 0 0 0 255
0.18204273 0.30035615 0.53624582 0 0 0 255
0.13575578 0.27603957 0.56626409 0 0 0 255
0.21616246 0.3514258 0.50783205 0 0 0 255
0.3020083 0.33851412 0.46387491 0 0 0 255
0.19657713 0.30740148 0.52729458 0 0 0 255
0.27901936 0.33347961 0.47772115 0 0 0 255
0.50414324 0.18128279 0.38571465 0 0 0 255
0.093684092 0.010783382 0.6420716 0 0 0 255
0.094666302 0.018549517 0.64009887 0 0 0 255
0.19946188 0.30858609 0.52620882 0 0 0 255
0.086180866 0.027545311 0.64315814 0 0 0 255
0.29097158 0.3362667 0.4712027 0 0 0 255
0.21455489 0.35100701 0.50984991 0 0 0 255
0.093933925 0.021364242 0.6405679 0 0 0 255
0.092597887 0.010891519 0.64372939 0 0 0 255
0.21111657 0.34999377 0.51285177 0 0 0 255
0.18467453 0.30202934 0.53676134 0 0 0 255
0.17926486 0.29923281 0.5403325 0 0 0 255
0.25643015 0.32887453 0.49269801 0 0 0 255
0.15405026 0.28616154 0.55671388 0 0 0 255
0.086864561 0.027754828 0.64437836 0 0 0 255
0.22384749 0.35379666 0.50593007 0 0 0 255
0.22863473 0.3522667 0.50363755 0 0 0 255
0.20542768 0.34748122 0.51733422 0 0 0 255
0.51179975 0.1629602 0.38784969 0 0 0 255
0.50310886 0.18266572 0.38871121 0 0 0 255
0.26977229 0.33209571 0.48586267 0 0 0 255
0.13600585 0.27652061 0.56949544 0 0 0 255
0.50674266 0.1778371 0.38793463 0 0 0 255
0.22641009 0.35416192 0.50523031 0 0 0 255
0.21008126 0.34951517 0.51542622 0 0 0 255
0.14366734 0.28103393 0.56516886 0 0 0 255
0.32832956 0.34375826 0.4526214 0 0 0 255
0.18583499 0.30293661 0.53821057 0 0 0 255
0.087432414 0.028897658 0.64595807 0 0 0 255
0.22158955 0.35322922 0.50919992 0 0 0 255
0.12998007 0.2727136 0.57483882 0 0 0 255
0.50891858 0.16191158 0.39121908 0 0 0 255
0.26946664 0.3323842 0.48747259 0 0 0 255
0.20572068 0.34758443 0.51926666 0 0 0 255
0.50424027 0.17227718 0.39212942 0 0 0 255
0.21291465 0.31431195 0.52217448 0 0 0 255
0.091452539 0.018832676 0.64653111 0 0 0 255
0.091106176 0.020145208 0.64674211 0 0 0 255
0.096861228 0.011939742 0.64529407 0 0 0 255
0.12569277 0.27003852 0.57899934 0 0 0 255
0.089200363 0.025867231 0.64702582 0 0 0 255
0.19976886 0.34455863 0.52422369 0 0 0 255
0.22574534 0.35452884 0.508609 0 0 0 255
0.15557915 0.2875444 0.55992687 0 0 0 255
0.50813442 0.17800018 0.390329 0 0 0 255
0.29517263 0.3385666 0.47419047 0 0 0 255
0.33736295 0.34557804 0.45002243 0 0 0 255
0.50230443 0.18237293 0.39286301 0 0 0 255
0.17704643 0.29872212 0.54638147 0 0 0 255
0.32123572 0.34378168 0.45962334 0 0 0 255
0.12936595 0.2725794 0.57809639 0 0 0 255
0.2552661 0.28929657 0.50649738 0 0 0 255
0.21970053 0.31723672 0.52032572 0 0 0 255
0.093066871 0.032201506 0.64550912 0 0 0 255
0.20765075 0.27163556 0.53613245 0 0 0 255
0.31125903 0.34249762 0.46603885 0 0 0 255
0.23696113 0.28268245 0.51834875 0 0 0 255
0.15136251 0.28559536 0.56428361 0 0 0 255
0.12757981 0.27148229 0.58001506 0 0 0 255
0.17453456 0.29762965 0.54952449 0 0 0 255
0.22328526 0.35390517 0.51198745 0 0 0 255
0.11447638 0.26295662 0.58899307 0 0 0 255
0.21786369 0.35232723 0.51531601 0 0 0 255
0.25482869 0.28922155 0.5078246 0 0 0 255
0.19661522 0.30904227 0.53556782 0 0 0 255
0.24047372 0.32500687 0.50863189 0 0 0 255
0.21757615 0.31667775 0.5227232 0 0 0 255
0.23716553 0.28281149 0.51891011 0 0 0 255
0.092825815 0.019609034 0.64918983 0 0 0 255
0.20195624 0.31102854 0.53250241 0 0 0 255
0.20102957 0.3454645 0.52622396 0 0 0 255
0.14363274 0.2816942 0.56996137 0 0 0 255
0.3110925 0.34271541 0.46715122 0 0 0 255
0.19128969 0.30643684 0.53951317 0 0 0 255
0.17597032 0.29849082 0.54943383 0 0 0 255
0.16123769 0.29085901 0.55899793 0 0 0 255
0.29093656 0.33829135 0.47935888 0 0 0 255
0.51004326 0.17651275 0.39258537 0 0 0 255
0.27523297 0.29555836 0.49660158 0 0 0 255
0.19377974 0.26473835 0.54688644 0 0 0 255
0.23617913 0.28252086 0.52037555 0 0 0 255
0.25033873 0.32881358 0.50367391 0 0 0 255
0.25655252 0.33073521 0.49998075 0 0 0 255
0.26138967 0.29171273 0.50509149 0 0 0 255
0.11377169 0.26263571 0.59094667 0 0 0 255
0.16311918 0.29192033 0.5584017 0 0 0 255
0.31597561 0.34388971 0.46525061 0 0 0 255
0.21762669 0.27579382 0.53209138 0 0 0 255
0.21253982 0.27394384 0.53523475 0 0 0 255
0.31952912 0.34442809 0.46356067 0 0 0 255
0.28336802 0.33683389 0.48473728 0 0 0 255
0.22877325 0.32109407 0.51758325 0 0 0 255
0.30474016 0.34168777 0.47245654 0 0 0 255
0.099643812 0.017873257 0.64769626 0 0 0 255
0.26533943 0.33289254 0.49562332 0 0 0 255
0.51417631 0.16382515 0.39412844 0 0 0 255
0.18556204 0.30369017 0.54483795 0 0 0 255
0.28771716 0.29869047 0.49046183 0 0 0 255
0.18555897 0.26065725 0.55351084 0 0 0 255
0.21839461 0.27615744 0.53267664 0 0 0 255
0.092913836 0.033371687 0.64870185 0 0 0 255
0.305273 0.34193015 0.47263259 0 0 0 255
0.27075639 0.29469344 0.50079566 0 0 0 255
0.23364052 0.28173617 0.5236851 0 0 0 255
0.27416447 0.29554752 0.49911228 0 0 0 255
0.093944803 0.02017498 0.65131736 0 0 0 255
0.1646775 0.29296851 0.55909783 0 0 0 255
0.096317485 0.028396435 0.64850497 0 0 0 255
0.2120658 0.35028788 0.52241713 0 0 0 255
0.11459886 0.26337749 0.59255624 0 0 0 255
0.29647142 0.30095297 0.48666748 0 0 0 255
0.19857854 0.2672112 0.54646832 0 0 0 255
0.31142935 0.34360802 0.47020271 0 0 0 255
0.18766588 0.2617493 0.55356926 0 0 0 255
0.51418316 0.16892421 0.39485919 0 0 0 255
0.23951931 0.28397596 0.52133226 0 0 0 255
0.50864416 0.18438092 0.39500201 0 0 0 255
0.1377964 0.27856046 0.57762051 0 0 0 255
0.32708901 0.34610537 0.46180269 0 0 0 255
0.13069114 0.27395543 0.58268112 0 0 0 255
0.22600995 0.35491863 0.51499802 0 0 0 255
0.30807877 0.30382219 0.4806284 0 0 0 255
0.22699943 0.27945507 0.52947444 0 0 0 255
0.21964125 0.27678123 0.53404832 0 0 0 255
0.50496244 0.18051204 0.39826649 0 0 0 255
0.16866526 0.25226057 0.56674421 0 0 0 255
0.17617555 0.29918084 0.55350643 0 0 0 255
0.20811197 0.34853038 0.52646321 0 0 0 255
0.51455307 0.16928071 0.39568365 0 0 0 255
0.23454723 0.3529036 0.51135343 0 0 0 255
0.27877924 0.29691574 0.49846679 0 0 0 255
0.34756881 0.34879398 0.45093429 0 0 0 255
0.096019164 0.031791598 0.65001017 0 0 0 255
0.23147851 0.28113386 0.52733314 0 0 0 255
0.30985719 0.3436124 0.47254461 0 0 0 255
0.25135267 0.32995558 0.50699258 0 0 0 255
0.12241079 0.26863939 0.58911836 0 0 0 255
0.51088578 0.16515842 0.39881963 0 0 0 255
0.20261213 0.34436014 0.53077197 0 0 0 255
0.22955112 0.28045967 0.52886003 0 0 0 255
0.25629091 0.33174083 0.50440228 0 0 0 255
0.20802665 0.31430566 0.53421783 0 0 0 255
0.18210763 0.25902164 0.55925399 0 0 0 255
0.5129348 0.17502818 0.39646518 0 0 0 255
0.1805014 0.25822267 0.56048793 0 0 0 255
0.20465267 0.3469837 0.52993029 0 0 0 255
0.24091537 0.28465447 0.52261567 0 0 0 255
0.33423135 0.34754062 0.45962572 0 0 0 255
0.24077931 0.28463364 0.52306008 0 0 0 255
0.26605037 0.29383761 0.5076136 0 0 0 255
0.17240302 0.25418815 0.56647408 0 0 0 255
0.28998899 0.29982716 0.4937185 0 0 0 255
0.09951666 0.012906216 0.6538409 0 0 0 255
0.29559869 0.34089249 0.48281002 0 0 0 255
0.093343347 0.027276911 0.65450209 0 0 0 255
0.2925311 0.34022334 0.4846845 0 0 0 255
0.35663009 0.35048664 0.44788659 0 0 0 255
0.15085807 0.28642273 0.57226473 0 0 0 255
0.10732286 0.25899673 0.60131818 0 0 0 255
0.25842437 0.33273405 0.50522733 0 0 0 255
0.23096488 0.35652357 0.51558447 0 0 0 255
0.16202608 0.29228872 0.56567657 0 0 0 255
0.2142036 0.35117123 0.52574503 0 0 0 255
0.27353656 0.33619195 0.49672052 0 0 0 255
0.11126775 0.26164436 0.59948039 0 0 0 255
0.30396959 0.30331954 0.48672649 0 0 0 255
0.34659526 0.34961203 0.45457906 0 0 0 255
0.22435302 0.2787981 0.53494865 0 0 0 255
0.12798783 0.27256551 0.58847731 0 0 0 255
0.5145182 0.17378464 0.39833099 0 0 0 255
0.32173741 0.3466318 0.46896636 0 0 0 255
0.23442143 0.32445616 0.52077508 0 0 0 255
0.30045041 0.34235883 0.48146769 0 0 0 255
0.22295353 0.35425171 0.52149087 0 0 0 255
0.18584687 0.26098502 0.56031954 0 0 0 255
0.24742106 0.28727636 0.5218122 0 0 0 255
0.3180528 0.34639275 0.47182101 0 0 0 255
0.29220775 0.34070238 0.48706755 0 0 0 255
0.36530304 0.35216635 0.44516718 0 0 0 255
0.15500933 0.28889334 0.57185698 0 0 0 255
0.27823478 0.33760908 0.49542564 0 0 0 255
0.51738894 0.16760868 0.3993589 0 0 0 255
0.23498577 0.35486442 0.51559275 0 0 0 255
0.2235532 0.32072198 0.52858132 0 0 0 255
0.18206476 0.30292314 0.55462253 0 0 0 255
0.15845081 0.29070541 0.56985766 0 0 0 255
0.508955 0.17645386 0.40241718 0 0 0 255
0.13351142 0.27632442 0.58645654 0 0 0 255
0.25659126 0.29066819 0.51685977 0 0 0 255
0.094811499 0.027089976 0.65675026 0 0 0 255
0.5172956 0.16840041 0.39968032 0 0 0 255
0.25208268 0.28904259 0.51982284 0 0 0 255
0.51347679 0.17926937 0.39990658 0 0 0 255
0.20333582 0.26977506 0.55033255 0 0 0 255
0.51044506 0.17305887 0.40283698 0 0 0 255
0.21829861 0.27677032 0.54087734 0 0 0 255
0.117915 0.26621151 0.59751475 0 0 0 255
0.24421071 0.32845089 0.51696318 0 0 0 255
0.1542951 0.28870729 0.57360822 0 0 0 255
0.15619062 0.24560934 0.58119416 0 0 0 255
0.19522643 0.30996004 0.54763818 0 0 0 255
0.28483456 0.33951139 0.49323279 0 0 0 255
0.23681803 0.35257366 0.51676208 0 0 0 255
0.51112002 0.18558145 0.40095681 0 0 0 255
0.27344248 0.29649049 0.50814307 0 0 0 255
0.15091383 0.28707266 0.57659751 0 0 0 255
0.09939079 0.031440027 0.6552186 0 0 0 255
0.15785332 0.24658677 0.58111757 0 0 0 255
0.10177743 0.025021523 0.65529984 0 0 0 255
0.094871536 0.029477865 0.65824217 0 0 0 255
0.20610039 0.34753796 0.53523892 0 0 0 255
0.2721976 0.29628941 0.50961381 0 0 0 255
0.16510317 0.2506811 0.57675564 0 0 0 255
0.17144737 0.25385997 0.57279861 0 0 0 255
0.34059757 0.35009128 0.46207684 0 0 0 255
0.32089311 0.3079226 0.48115456 0 0 0 255
0.26981691 0.29569441 0.51140684 0 0 0 255
0.27091914 0.29604438 0.51082677 0 0 0 255
0.13411251 0.27697676 0.58883774 0 0 0 255
0.22157794 0.35403457 0.52618051 0 0 0 255
0.31362045 0.30622539 0.48572001 0 0 0 255
0.51398838 0.18098599 0.40178159 0 0 0 255
0.26013348 0.33437845 0.50929296 0 0 0 255
0.29410166 0.34198883 0.48938322 0 0 0 255
0.17408365 0.25519451 0.57166517 0 0 0 255
0.19830471 0.26732412 0.55616665 0 0 0 255
0.22122329 0.2780467 0.5417437 0 0 0 255
0.10366622 0.021403499 0.65621823 0 0 0 255
0.24884678 0.28810263 0.52479905 0 0 0 255
0.295147 0.34229022 0.4890362 0 0 0 255
0.14100787 0.28151637 0.58468175 0 0 0 255
0.2983731 0.30264971 0.49514547 0 0 0 255
0.34082729 0.31181407 0.47042498 0 0 0 255
0.27821773 0.29786834 0.5071823 0 0 0 255
0.25721011 0.29117692 0.5200423 0 0 0 255
0.36944658 0.35387716 0.44688159 0 0 0 255
0.10039479 0.01643157 0.65948641 0 0 0 255
0.36737719 0.35364997 0.44810641 0 0 0 255
0.10340478 0.25708446 0.61041147 0 0 0 255
0.20577383 0.3445923 0.53764474 0 0 0 255
0.22422138 0.35485449 0.52561951 0 0 0 255
0.20613913 0.31517604 0.54331952 0 0 0 255
0.22802003 0.28058317 0.53835618 0 0 0 255
0.3773185 0.35348776 0.44303212 0 0 0 255
0.098983556 0.020844907 0.6597997 0 0 0 255
0.16336405 0.24985002 0.57976741 0 0 0 255
0.33222389 0.31053877 0.47617584 0 0 0 255
0.23687461 0.35557413 0.51901853 0 0 0 255
0.18821487 0.30675393 0.55521804 0 0 0 255
0.16094425 0.29264358 0.57280755 0 0 0 255
0.21411695 0.27528188 0.5475356 0 0 0 255
0.097467624 0.25293946 0.61530674 0 0 0 255
0.35051894 0.35193294 0.45852786 0 0 0 255
0.51731193 0.17414445 0.40315688 0 0 0 255
0.31929669 0.30783072 0.48431978 0 0 0 255
0.27557167 0.29742718 0.51020223 0 0 0 255
0.51630414 0.17725997 0.40336508 0 0 0 255
0.27630746 0.33848414 0.50175512 0 0 0 255
0.29473975 0.30201149 0.49904168 0 0 0 255
0.12979916 0.2743901 0.59414262 0 0 0 255
0.28877628 0.30061254 0.50272471 0 0 0 255
0.11193167 0.26277411 0.60625106 0 0 0 255
0.15260136 0.28848842 0.5793255 0 0 0 255
0.24464402 0.28676194 0.52975547 0 0 0 255
0.30036288 0.3034389 0.49640474 0 0 0 255
0.2548787 0.29051337 0.5237999 0 0 0 255
0.32103646 0.34861016 0.47649968 0 0 0 255
0.37946594 0.35526904 0.44353402 0 0 0 255
0.23971988 0.285007 0.5332492 0 0 0 255
0.30932912 0.30561715 0.49144563 0 0 0 255
0.17220625 0.25433862 0.57602656 0 0 0 255
0.22480871 0.35513639 0.52758658 0 0 0 255
0.1830343 0.25976416 0.56926578 0 0 0 255
0.10114025 0.032451473 0.65861893 0 0 0 255
0.14456403 0.23865026 0.59436995 0 0 0 255
0.21819052 0.35281888 0.53193587 0 0 0 255
0.26915887 0.29575744 0.51561296 0 0 0 255
0.33471474 0.31132323 0.47710454 0 0 0 255
0.31416267 0.34738511 0.48118189 0 0 0 255
0.12602831 0.27206954 0.59814715 0 0 0 255
0.16407272 0.25024712 0.58183217 0 0 0 255
0.20701292 0.34248564 0.5403586 0 0 0 255
0.36454195 0.35419121 0.4526127 0 0 0 255
0.33494127 0.35057187 0.46938646 0 0 0 255
0.35942397 0.35359281 0.45552078 0 0 0 255
0.26736677 0.29514325 0.51719213 0 0 0 255
0.23309937 0.35758203 0.5235126 0 0 0 255
0.28336859 0.29959679 0.50801545 0 0 0 255
0.16113165 0.29316068 0.57564187 0 0 0 255
0.099424802 0.25463861 0.61675841 0 0 0 255
0.33183712 0.35036746 0.47178108 0 0 0 255
0.24958794 0.33167395 0.52011538 0 0 0 255
0.51550889 0.18264741 0.40528822 0 0 0 255
0.22749645 0.32363892 0.53371525 0 0 0 255
0.10306381 0.25725105 0.61433583 0 0 0 255
0.18294159 0.2597501 0.57054716 0 0 0 255
0.33290905 0.31117314 0.47904605 0 0 0 255
0.18399496 0.30501577 0.56107199 0 0 0 255
0.19047588 0.30837518 0.55693454 0 0 0 255
0.14042646 0.28154421 0.58942193 0 0 0 255
0.16790815 0.2522279 0.58032179 0 0 0 255
0.14244881 0.23738028 0.59708852 0 0 0 255
0.3095935 0.30588797 0.49289179 0 0 0 255
0.21268676 0.35037053 0.53683656 0 0 0 255
0.24191122 0.28595299 0.53376806 0 0 0 255
0.27916631 0.29867107 0.51107442 0 0 0 255
0.29672039 0.30288541 0.5009774 0 0 0 255
0.51516455 0.17008272 0.40883714 0 0 0 255
0.10658474 0.020425566 0.66033304 0 0 0 255
0.25753695 0.29169959 0.52491528 0 0 0 255
0.11505003 0.2651419 0.6074661 0 0 0 255
0.18912692 0.26288146 0.56788468 0 0 0 255
0.21834497 0.32057929 0.54075819 0 0 0 255
0.34379089 0.35230216 0.46652341 0 0 0 255
0.34920698 0.35299492 0.46350622 0 0 0 255
0.19407333 0.31044704 0.55609447 0 0 0 255
0.17226665 0.25445175 0.57910669 0 0 0 255
0.30105171 0.304052 0.49946418 0 0 0 255
0.35690865 0.35403249 0.45939705 0 0 0 255
0.10232887 0.2461682 0.61882132 0 0 0 255
0.23600912 0.28392187 0.53886431 0 0 0 255
0.1411166 0.23656923 0.59973836 0 0 0 255
0.18032664 0.3034218 0.56557703 0 0 0 255
0.19749498 0.31230915 0.55460417 0 0 0 255
0.097235903 0.033155471 0.66418785 0 0 0 255
0.10170363 0.03551624 0.66131461 0 0 0 255
0.11038289 0.26226354 0.61199236 0 0 0 255
0.24378763 0.28680822 0.53478032 0 0 0 255
0.21155229 0.34983662 0.5399012 0 0 0 255
0.20263807 0.26968697 0.5607332 0 0 0 255
0.20654193 0.27164334 0.55828565 0 0 0 255
0.29430622 0.34383777 0.4964335 0 0 0 255
0.18489572 0.26080614 0.57222128 0 0 0 255
0.20141877 0.26908067 0.56167817 0 0 0 255
0.17716956 0.30189994 0.56839913 0 0 0 255
0.31240588 0.34793675 0.485973 0 0 0 255
0.30520865 0.34632677 0.49021187 0 0 0 255
0.20772207 0.27224082 0.55777586 0 0 0 255
0.33291823 0.35140148 0.47427261 0 0 0 255
0.37040892 0.35601562 0.45305625 0 0 0 255
0.2535246 0.2904093 0.52951735 0 0 0 255
0.34130406 0.31305864 0.47743857 0 0 0 255
0.52066672 0.17277309 0.40786898 0 0 0 255
0.17098504 0.25385872 0.58175308 0 0 0 255
0.17560613 0.25617281 0.57881951 0 0 0 255
0.33957314 0.31282213 0.47872114 0 0 0 255
0.17452496 0.30061606 0.57069904 0 0 0 255
0.20046765 0.26862457 0.56305575 0 0 0 255
0.23961069 0.35026222 0.52579582 0 0 0 255
0.23949988 0.2853494 0.53869343 0 0 0 255
0.33232665 0.31168035 0.48314244 0 0 0 255
0.23723033 0.32786739 0.53170973 0 0 0 255
0.18493551 0.26085901 0.57343537 0 0 0 255
0.27951542 0.29923537 0.51458192 0 0 0 255
0.17213845 0.25445467 0.58171189 0 0 0 255
0.51929736 0.16568902 0.41102511 0 0 0 255
0.27501667 0.29818821 0.51742315 0 0 0 255
0.16259655 0.29456013 0.57920909 0 0 0 255
0.2666997 0.33798099 0.51433432 0 0 0 255
0.22953309 0.28178966 0.54566783 0 0 0 255
0.15708983 0.24602604 0.59208345 0 0 0 255
0.32266992 0.30960044 0.48977265 0 0 0 255
0.33668178 0.31255266 0.48164752 0 0 0 255
0.10324553 0.01989878 0.66609013 0 0 0 255
0.21743834 0.35240704 0.53849143 0 0 0 255
0.36037439 0.31644934 0.46821329 0 0 0 255
0.10091494 0.026554048 0.66623735 0 0 0 255
0.29570061 0.30321506 0.50599772 0 0 0 255
0.18875352 0.26279739 0.57200456 0 0 0 255
0.10794428 0.021950543 0.66340733 0 0 0 255
0.22274798 0.27935818 0.55031478 0 0 0 255
0.20423672 0.27055103 0.56212664 0 0 0 255
0.23313445 0.2831502 0.54408181 0 0 0 255
0.26806337 0.3384482 0.51425862 0 0 0 255
0.25269389 0.33371708 0.52357447 0 0 0 255
0.35304779 0.35455778 0.46506789 0 0 0 255
0.22535303 0.28033379 0.54905957 0 0 0 255
0.32110035 0.35049057 0.48327389 0 0 0 255
0.35643703 0.35505736 0.46340805 0 0 0 255
0.21816349 0.35271561 0.53890419 0 0 0 255
0.1932196 0.26504958 0.56976104 0 0 0 255
0.32229578 0.30963418 0.4909406 0 0 0 255
0.16862711 0.2978735 0.57667738 0 0 0 255
0.15377459 0.24403736 0.59542978 0 0 0 255
0.22108711 0.35400617 0.53720391 0 0 0 255
0.214448 0.27568388 0.55631924 0 0 0 255
0.34303218 0.31378168 0.47919959 0 0 0 255
0.10807937 0.26114506 0.61710703 0 0 0 255
0.10804893 0.022974275 0.6641736 0 0 0 255
0.21545634 0.27619568 0.55593395 0 0 0 255
0.28163481 0.34172982 0.50711662 0 0 0 255
0.51379001 0.18086252 0.41304284 0 0 0 255
0.38732076 0.35320997 0.4476341 0 0 0 255
0.17119214 0.29926968 0.57558119 0 0 0 255
0.14830191 0.28726262 0.59037888 0 0 0 255
0.10522933 0.031057253 0.66436994 0 0 0 255
0.099467129 0.032404117 0.6673314 0 0 0 255
0.32280135 0.35108665 0.48329049 0 0 0 255
0.51566327 0.1760287 0.41323084 0 0 0 255
0.18841773 0.3081286 0.56476313 0 0 0 255
0.12971552 0.27522773 0.60317093 0 0 0 255
0.28288487 0.30037954 0.51523131 0 0 0 255
0.32495835 0.35145572 0.48241079 0 0 0 255
0.13274668 0.23154536 0.6103906 0 0 0 255
0.10122377 0.028192401 0.66769063 0 0 0 255
0.31262147 0.30750385 0.49799681 0 0 0 255
0.16303846 0.24954867 0.59062028 0 0 0 255
0.35885975 0.35577071 0.46345201 0 0 0 255
0.32571477 0.31064346 0.49042258 0 0 0 255
0.51693684 0.1734682 0.41379464 0 0 0 255
0.21742134 0.27721161 0.5558905 0 0 0 255
0.27561003 0.29872403 0.520118 0 0 0 255
0.27439648 0.34033448 0.51258266 0 0 0 255
0.14106765 0.23646998 0.60561365 0 0 0 255
0.28213131 0.30030712 0.51650196 0 0 0 255
0.29742432 0.34564418 0.49925768 0 0 0 255
0.16150102 0.24862637 0.5921762 0 0 0 255
0.12896925 0.27485356 0.60471547 0 0 0 255
