ply
format ascii 1.0
comment PCL generated
element vertex 1017
property float x
property float y
property float z
property uchar red
property uchar green
property uchar blue
property uchar alpha
element camera 0
property float view_px
property float view_py
property float view_pz
property float x_axisx
property float x_axisy
property float x_axisz
property float y_axisx
property float y_axisy
property float y_axisz
property float z_axisx
property float z_axisy
property float z_axisz
property float focal
property float scalex
property float scaley
property float centerx
property float centery
property int viewportx
property int viewporty
property float k1
property float k2
end_header
0.34289643 0.016880117 -0.32777548 0 0 0 255
0.34517866 0.017684147 -0.32987675 0 0 0 255
0.34740031 0.018474646 -0.33208448 0 0 0 255
0.34893781 0.018955484 -0.33569127 0 0 0 255
-0.14433447 -0.16407314 -0.037864521 0 0 0 255
-0.13978897 -0.16227829 -0.035892949 0 0 0 255
-0.1357103 -0.16068849 -0.034754612 0 0 0 255
-0.13244927 -0.15945691 -0.035075329 0 0 0 255
-0.12908523 -0.15817188 -0.035180733 0 0 0 255
-0.12565687 -0.15686238 -0.035184994 0 0 0 255
-0.12281586 -0.15581027 -0.036229663 0 0 0 255
-0.1190929 -0.15437652 -0.035712764 0 0 0 255
-0.11678346 -0.15355408 -0.037692722 0 0 0 255
-0.11411722 -0.15257303 -0.039050002 0 0 0 255
-0.11116326 -0.15147451 -0.03988336 0 0 0 255
-0.10826719 -0.15039384 -0.040821515 0 0 0 255
-0.10525303 -0.14925957 -0.041553728 0 0 0 255
-0.10270581 -0.14833248 -0.043118689 0 0 0 255
-0.099924378 -0.14731272 -0.044265516 0 0 0 255
-0.097264789 -0.14633621 -0.045618299 0 0 0 255
-0.094426498 -0.14527659 -0.046662983 0 0 0 255
-0.092113853 -0.14446148 -0.048642058 0 0 0 255
-0.089572325 -0.14353648 -0.050203513 0 0 0 255
-0.087374777 -0.14276326 -0.052394778 0 0 0 255
-0.085122861 -0.14195962 -0.054479521 0 0 0 255
-0.082398757 -0.14096071 -0.055732008 0 0 0 255
-0.080207586 -0.14018877 -0.0579184 0 0 0 255
-0.077254325 -0.13908835 -0.058751766 0 0 0 255
-0.075290173 -0.13840753 -0.061361652 0 0 0 255
-0.072685637 -0.13745959 -0.062820956 0 0 0 255
-0.070432223 -0.13665754 -0.064906195 0 0 0 255
-0.068639569 -0.13605829 -0.067829549 0 0 0 255
0.018099058 -0.098878697 0.069891945 0 0 0 255
0.022522409 -0.097136833 0.071799368 0 0 0 255
0.026944302 -0.095386967 0.073707163 0 0 0 255
0.031068146 -0.093772188 0.075097799 0 0 0 255
0.035891853 -0.091859072 0.077740319 0 0 0 255
0.039266486 -0.090569124 0.077769071 0 0 0 255
0.042576816 -0.089303643 0.077696666 0 0 0 255
0.046987608 -0.087566331 0.079612955 0 0 0 255
0.050822534 -0.086073741 0.080478951 0 0 0 255
0.053377949 -0.085135162 0.079048142 0 0 0 255
0.056803387 -0.083827786 0.079187915 0 0 0 255
0.059709921 -0.082743317 0.078383043 0 0 0 255
0.062846102 -0.081557184 0.077998176 0 0 0 255
0.065574169 -0.080537677 0.076880336 0 0 0 255
0.068363458 -0.079506531 0.075869024 0 0 0 255
0.071150772 -0.078473978 0.074857347 0 0 0 255
0.073827341 -0.077491306 0.073633857 0 0 0 255
0.075808451 -0.076805368 0.071154624 0 0 0 255
0.078247853 -0.075924985 0.06951651 0 0 0 255
0.081385523 -0.07474044 0.069131136 0 0 0 255
0.083597563 -0.073951304 0.067070901 0 0 0 255
0.085925266 -0.073123269 0.06522198 0 0 0 255
0.088138334 -0.072335899 0.063160367 0 0 0 255
0.090174511 -0.071621418 0.060787655 0 0 0 255
0.092165351 -0.070939399 0.05830393 0 0 0 255
0.094204947 -0.070233263 0.055929855 0 0 0 255
0.096016973 -0.069616325 0.053134523 0 0 0 255
0.098175451 -0.068857327 0.050967269 0 0 0 255
0.099761263 -0.068351455 0.047751933 0 0 0 255
0.10186175 -0.067612514 0.045480393 0 0 0 255
0.10334019 -0.067152098 0.042049386 0 0 0 255
0.10572946 -0.066292077 0.040301614 0 0 0 255
0.1073122 -0.065777756 0.037086301 0 0 0 255
0.10850301 -0.06543906 0.033131018 0 0 0 255
0.11094994 -0.064559124 0.031488903 0 0 0 255
0.11259994 -0.064010739 0.028371233 0 0 0 255
0.11396079 -0.063602701 0.024733791 0 0 0 255
0.11595656 -0.062911436 0.02224556 0 0 0 255
0.11754806 -0.0624035 0.019026738 0 0 0 255
0.12159425 -0.060816996 0.020324223 0 0 0 255
0.12438156 -0.059784427 0.019312542 0 0 0 255
0.12836549 -0.058228031 0.020508878 0 0 0 255
0.13297132 -0.056394208 0.022863794 0 0 0 255
0.13575897 -0.055362575 0.02185211 0 0 0 255
0.13894437 -0.054151092 0.021576397 0 0 0 255
0.14212567 -0.052948538 0.021304674 0 0 0 255
0.1455922 -0.051617686 0.021557234 0 0 0 255
0.14753304 -0.050953869 0.018963344 0 0 0 255
0.15065688 -0.049774352 0.018586468 0 0 0 255
0.15349925 -0.048713244 0.017681312 0 0 0 255
0.15673581 -0.047483128 0.017513882 0 0 0 255
0.15963274 -0.046393637 0.016714383 0 0 0 255
0.16286814 -0.045163948 0.01654882 0 0 0 255
0.16582209 -0.044051591 0.015853606 0 0 0 255
0.16865794 -0.042992845 0.014952451 0 0 0 255
0.17143942 -0.041964546 0.013944775 0 0 0 255
0.17462152 -0.040761691 0.013672557 0 0 0 255
0.17683995 -0.039972372 0.011608817 0 0 0 255
0.17978838 -0.038865209 0.010917597 0 0 0 255
0.18273889 -0.037764736 0.010227762 0 0 0 255
0.18501557 -0.036952086 0.0082686692 0 0 0 255
0.18672323 -0.036383774 0.0052566752 0 0 0 255
0.18955782 -0.035325501 0.00435514 0 0 0 255
0.19133011 -0.034733675 0.001444295 0 0 0 255
0.19478635 -0.033415079 0.0017048419 0 0 0 255
0.19498086 -0.033510286 -0.0041610971 0 0 0 255
0.19731249 -0.032670196 -0.0060145333 0 0 0 255
0.20043632 -0.031490687 -0.0063914135 0 0 0 255
0.20242444 -0.030801143 -0.0088751465 0 0 0 255
0.20380369 -0.030377906 -0.012525581 0 0 0 255
0.20519222 -0.029959802 -0.016180031 0 0 0 255
0.20713294 -0.02929816 -0.018773414 0 0 0 255
0.20946372 -0.028458353 -0.020626329 0 0 0 255
0.21090555 -0.028012335 -0.024175502 0 0 0 255
0.21111587 -0.028102875 -0.030050945 0 0 0 255
0.21239133 -0.027733363 -0.033916216 0 0 0 255
0.21265462 -0.027796097 -0.039685007 0 0 0 255
0.2149958 -0.026962098 -0.041542437 0 0 0 255
0.21616381 -0.026632771 -0.045624364 0 0 0 255
0.21666144 -0.026601698 -0.050974183 0 0 0 255
0.21760599 -0.026371796 -0.055478737 0 0 0 255
0.21950252 -0.025724091 -0.058186281 0 0 0 255
0.22045277 -0.025492113 -0.062694341 0 0 0 255
0.22251925 -0.024776187 -0.065084919 0 0 0 255
0.22452196 -0.024082389 -0.067576274 0 0 0 255
0.22603495 -0.02361048 -0.07102827 0 0 0 255
0.22720996 -0.023278601 -0.075113341 0 0 0 255
0.22938763 -0.022511557 -0.077292606 0 0 0 255
0.23146141 -0.021794043 -0.079686314 0 0 0 255
0.2343041 -0.020732805 -0.080592833 0 0 0 255
0.23592556 -0.02020333 -0.08383216 0 0 0 255
0.23899141 -0.01904279 -0.084314689 0 0 0 255
0.24244764 -0.017724201 -0.084054127 0 0 0 255
0.24473494 -0.016900226 -0.086021215 0 0 0 255
0.24802083 -0.015651092 -0.086077124 0 0 0 255
0.25080964 -0.014620125 -0.0870893 0 0 0 255
0.25392354 -0.013433576 -0.087462172 0 0 0 255
0.25798634 -0.011841021 -0.08603403 0 0 0 255
0.26093411 -0.010731973 -0.086725235 0 0 0 255
0.26316991 -0.0099448487 -0.088797972 0 0 0 255
0.26667067 -0.0085930228 -0.088427275 0 0 0 255
0.26950687 -0.0075352192 -0.089328423 0 0 0 255
0.27279359 -0.0062858015 -0.089384831 0 0 0 255
0.27590618 -0.0050997287 -0.089758061 0 0 0 255
0.27907446 -0.0039019063 -0.090021804 0 0 0 255
0.28185332 -0.0028649718 -0.091028608 0 0 0 255
0.2846418 -0.0018330589 -0.092040777 0 0 0 255
0.28824612 -0.0004318431 -0.091454253 0 0 0 255
0.29130235 0.00071455538 -0.091928802 0 0 0 255
0.29364049 0.0015570223 -0.093786225 0 0 0 255
0.29658777 0.0026648268 -0.094476923 0 0 0 255
0.29937053 0.003693603 -0.095484242 0 0 0 255
0.30127358 0.0043436661 -0.098195791 0 0 0 255
0.30312002 0.0049709901 -0.10101298 0 0 0 255
0.30551544 0.0058343187 -0.10276474 0 0 0 255
0.30741838 0.0064822137 -0.10547579 0 0 0 255
0.30877641 0.0068892166 -0.10925238 0 0 0 255
0.31084952 0.0076096877 -0.11164747 0 0 0 255
0.31215936 0.0079885125 -0.11553322 0 0 0 255
0.31313697 0.0082315132 -0.12005828 0 0 0 255
0.3139517 0.0084056631 -0.12490518 0 0 0 255
0.3156932 0.0089873597 -0.12793818 0 0 0 255
0.31531408 0.0086216405 -0.13513002 0 0 0 255
0.26055157 -0.016788013 -0.2880128 0 0 0 255
0.26375195 -0.015572116 -0.2882975 0 0 0 255
0.2663534 -0.014615715 -0.2897568 0 0 0 255
0.26928645 -0.013521604 -0.29057682 0 0 0 255
0.27232561 -0.012381434 -0.29118288 0 0 0 255
0.27497739 -0.01140777 -0.29253203 0 0 0 255
0.27736273 -0.01054813 -0.29441842 0 0 0 255
0.27964216 -0.0097365975 -0.29651967 0 0 0 255
0.28278568 -0.0085478052 -0.29690903 0 0 0 255
0.28549907 -0.0075421482 -0.29815704 0 0 0 255
0.28782928 -0.0067121312 -0.30014861 0 0 0 255
0.29011184 -0.0059079826 -0.30225122 0 0 0 255
0.29341531 -0.004643932 -0.30231962 0 0 0 255
0.2966072 -0.0034300685 -0.30259934 0 0 0 255
0.29926634 -0.002453737 -0.30395299 0 0 0 255
0.30299962 -0.0010055974 -0.30316281 0 0 0 255
0.30619153 0.00020827353 -0.30344251 0 0 0 255
0.3085767 0.0010668039 -0.3053298 0 0 0 255
0.3111231 0.0019935891 -0.30689424 0 0 0 255
0.31464678 0.0033473596 -0.30653518 0 0 0 255
0.31718749 0.0042720735 -0.30809614 0 0 0 255
0.3193619 0.0050368533 -0.31041405 0 0 0 255
0.32211941 0.0060564429 -0.31154788 0 0 0 255
0.32498944 0.0071276203 -0.31247002 0 0 0 255
0.32802054 0.0082670003 -0.31307161 0 0 0 255
0.33051047 0.0091732144 -0.31474221 0 0 0 255
0.33289886 0.010024421 -0.31662863 0 0 0 255
0.33522525 0.010862604 -0.31861973 0 0 0 255
0.33750504 0.01167427 -0.32072231 0 0 0 255
0.33989263 0.012525156 -0.32260823 0 0 0 255
0.34254456 0.013501003 -0.32395792 0 0 0 255
0.34536409 0.014552742 -0.32498971 0 0 0 255
0.34742615 0.015267044 -0.32751843 0 0 0 255
0.34949151 0.015976198 -0.33004677 0 0 0 255
0.35112923 0.016511589 -0.33343813 0 0 0 255
0.35388803 0.017531663 -0.3345716 0 0 0 255
0.35606486 0.018289872 -0.33688954 0 0 0 255
0.35828814 0.019079894 -0.33909693 0 0 0 255
-0.14320047 -0.16699022 -0.037762858 0 0 0 255
-0.13888532 -0.16529623 -0.036209911 0 0 0 255
-0.13469474 -0.16365717 -0.034860268 0 0 0 255
-0.13155484 -0.1624697 -0.035388291 0 0 0 255
-0.12765902 -0.16095705 -0.034559295 0 0 0 255
-0.12452337 -0.1597807 -0.035082825 0 0 0 255
-0.12186378 -0.15880314 -0.036436975 0 0 0 255
-0.11849323 -0.15751573 -0.036546383 0 0 0 255
-0.1154206 -0.1563623 -0.037172075 0 0 0 255
-0.11275497 -0.15538362 -0.03852972 0 0 0 255
-0.10974 -0.1542501 -0.039261058 0 0 0 255
-0.10654908 -0.15304619 -0.039680298 0 0 0 255
-0.10330839 -0.15182202 -0.039988521 0 0 0 255
-0.10029274 -0.15069038 -0.040719859 0 0 0 255
-0.098213151 -0.14996755 -0.043118935 0 0 0 255
-0.096133545 -0.14924578 -0.04551664 0 0 0 255
-0.093298689 -0.14819698 -0.046557326 0 0 0 255
-0.090869889 -0.14732151 -0.048329595 0 0 0 255
-0.088268071 -0.14636604 -0.049788896 0 0 0 255
-0.085957691 -0.14554219 -0.051768474 0 0 0 255
-0.083990119 -0.14487076 -0.054378364 0 0 0 255
-0.081680201 -0.14404814 -0.056357443 0 0 0 255
-0.079075664 -0.1431002 -0.057816751 0 0 0 255
-0.076353401 -0.14209875 -0.059068736 0 0 0 255
-0.073574699 -0.14107147 -0.06021557 0 0 0 255
-0.072078168 -0.14059597 -0.0636582 0 0 0 255
-0.069361731 -0.13959879 -0.064906195 0 0 0 255
-0.067162901 -0.1388251 -0.06709709 0 0 0 255
0.016892467 -0.10275406 0.065814264 0 0 0 255
0.022184733 -0.10063529 0.069291256 0 0 0 255
0.027066581 -0.098681852 0.072036296 0 0 0 255
0.031714894 -0.096842125 0.074365847 0 0 0 255
0.035319492 -0.095450386 0.074813217 0 0 0 255
0.039910141 -0.093631662 0.077038474 0 0 0 255
0.044088237 -0.091987573 0.078534782 0 0 0 255
0.046940535 -0.090932421 0.077624254 0 0 0 255
0.050711289 -0.089463189 0.078389965 0 0 0 255
0.053737525 -0.088326648 0.077792771 0 0 0 255
0.057741668 -0.086763941 0.078975737 0 0 0 255
0.060820524 -0.08559867 0.078485213 0 0 0 255
0.063951686 -0.084416501 0.078103825 0 0 0 255
0.066913627 -0.08330442 0.077405483 0 0 0 255
0.069877483 -0.082199089 0.076706275 0 0 0 255
0.072893322 -0.081056751 0.076113589 0 0 0 255
0.075624131 -0.080044761 0.074995756 0 0 0 255
0.078872211 -0.078809381 0.074822187 0 0 0 255
0.081373043 -0.07789918 0.073285729 0 0 0 255
0.082379207 -0.077648982 0.069025487 0 0 0 255
0.084473513 -0.076913349 0.066757932 0 0 0 255
0.086918607 -0.07603088 0.065116316 0 0 0 255
0.08918865 -0.07522171 0.063160367 0 0 0 255
0.091344051 -0.074455321 0.060994469 0 0 0 255
0.093955159 -0.073496476 0.059670318 0 0 0 255
0.095429078 -0.073039845 0.056243688 0 0 0 255
0.097356066 -0.072381057 0.053658307 0 0 0 255
0.09928377 -0.071724154 0.051072918 0 0 0 255
0.10132966 -0.071013585 0.04869571 0 0 0 255
0.10245767 -0.070700943 0.044638775 0 0 0 255
0.1049585 -0.069790743 0.043102317 0 0 0 255
0.10626285 -0.069403283 0.039358716 0 0 0 255
0.10802016 -0.068815835 0.036456861 0 0 0 255
0.11035369 -0.067982495 0.03460256 0 0 0 255
0.11132254 -0.067745849 0.030225527 0 0 0 255
0.11308113 -0.067156889 0.02732267 0 0 0 255
0.11518717 -0.066416979 0.025046755 0 0 0 255
0.11644138 -0.066049889 0.021193501 0 0 0 255
0.11831999 -0.065416165 0.018498454 0 0 0 255
0.12065228 -0.064577952 0.016645029 0 0 0 255
0.12304609 -0.063714154 0.014892895 0 0 0 255
0.12589201 -0.062660262 0.013987239 0 0 0 255
0.12970728 -0.061176956 0.014865734 0 0 0 255
0.1355032 -0.058821652 0.01943266 0 0 0 255
0.1369312 -0.058380671 0.015892003 0 0 0 255
0.14125165 -0.05667625 0.017721768 0 0 0 255
0.14471784 -0.055345532 0.017975695 0 0 0 255
0.14688283 -0.054584164 0.015804432 0 0 0 255
0.15011823 -0.053354472 0.015638866 0 0 0 255
0.15217145 -0.052641239 0.013257161 0 0 0 255
0.15529139 -0.051452495 0.012879416 0 0 0 255
0.15909649 -0.049980339 0.013766784 0 0 0 255
0.16176999 -0.048989203 0.012543295 0 0 0 255
0.16472459 -0.047879793 0.011849444 0 0 0 255
0.16626543 -0.047388166 0.0085204653 0 0 0 255
0.17136589 -0.045348767 0.011834286 0 0 0 255
0.17329668 -0.0446801 0.0092448965 0 0 0 255
0.17490122 -0.044167411 0.0060180798 0 0 0 255
0.17768283 -0.043136932 0.0050098971 0 0 0 255
0.18007097 -0.042276267 0.0032626316 0 0 0 255
0.18195516 -0.041635193 0.00056308508 0 0 0 255
0.18484834 -0.040555581 -0.00023240596 0 0 0 255
0.18762641 -0.039517883 -0.001240097 0 0 0 255
0.18973455 -0.03877721 -0.0035161376 0 0 0 255
0.19100302 -0.03841025 -0.0073782653 0 0 0 255
0.19311115 -0.037669577 -0.0096543133 0 0 0 255
0.19538644 -0.036859561 -0.011613272 0 0 0 255
0.19732843 -0.036197454 -0.014206283 0 0 0 255
0.19888228 -0.035701085 -0.017543267 0 0 0 255
0.20093536 -0.034988958 -0.019925836 0 0 0 255
0.20304921 -0.034245159 -0.022206753 0 0 0 255
0.20476727 -0.033683706 -0.025221899 0 0 0 255
0.20688111 -0.032939896 -0.027502809 0 0 0 255
0.20792991 -0.032662462 -0.031791564 0 0 0 255
0.20741281 -0.033079464 -0.039040409 0 0 0 255
0.20907937 -0.032533552 -0.042166576 0 0 0 255
0.21052933 -0.032085653 -0.045719367 0 0 0 255
0.21141896 -0.031883176 -0.050329585 0 0 0 255
0.21314204 -0.031316709 -0.053349588 0 0 0 255
0.21554467 -0.030452885 -0.05510537 0 0 0 255
0.21671268 -0.030123565 -0.059187301 0 0 0 255
0.21849765 -0.029526036 -0.062106155 0 0 0 255
0.2203403 -0.028908603 -0.064919345 0 0 0 255
0.22251879 -0.028142329 -0.067097746 0 0 0 255
0.22502531 -0.027230058 -0.068637706 0 0 0 255
0.22591871 -0.027017705 -0.073251918 0 0 0 255
0.22699092 -0.026741333 -0.077553168 0 0 0 255
0.22805388 -0.026459813 -0.08185041 0 0 0 255
0.23056775 -0.025544867 -0.083394878 0 0 0 255
0.23285848 -0.024730295 -0.085361958 0 0 0 255
0.23631781 -0.023399934 -0.085105397 0 0 0 255
0.24043521 -0.021779001 -0.083571598 0 0 0 255
0.24299598 -0.020837411 -0.085005902 0 0 0 255
0.24628985 -0.019587487 -0.085066311 0 0 0 255
0.24896252 -0.018596649 -0.086289302 0 0 0 255
0.25191796 -0.017486952 -0.086983643 0 0 0 255
0.2550346 -0.01630792 -0.087356523 0 0 0 255
0.25787649 -0.01524698 -0.088262543 0 0 0 255
0.26209974 -0.013577938 -0.086513922 0 0 0 255
0.26510483 -0.012449093 -0.087098122 0 0 0 255
0.26783565 -0.011437103 -0.088215962 0 0 0 255
0.27028826 -0.010555103 -0.089861564 0 0 0 255
0.27384695 -0.0091800541 -0.089384831 0 0 0 255
0.27684766 -0.008043237 -0.089969374 0 0 0 255
0.27995932 -0.0068681464 -0.090338767 0 0 0 255
0.28296405 -0.0057383776 -0.090922952 0 0 0 255
0.28585434 -0.004652366 -0.091719314 0 0 0 255
0.28874835 -0.0035724714 -0.09251532 0 0 0 255
0.29136679 -0.0026109517 -0.093843974 0 0 0 255
0.29398638 -0.0016500801 -0.09517312 0 0 0 255
0.29692647 -0.0005427599 -0.095859826 0 0 0 255
0.29916227 0.00024437159 -0.097932555 0 0 0 255
0.30194032 0.0012820736 -0.098940238 0 0 0 255
0.30411881 0.0020483509 -0.10111864 0 0 0 255
0.30619156 0.0027686954 -0.10351234 0 0 0 255
0.30814373 0.0034419447 -0.10611422 0 0 0 255
0.3098298 0.0039949566 -0.10925238 0 0 0 255
0.3106989 0.0041793212 -0.11398877 0 0 0 255
0.3120057 0.0045676678 -0.11787589 0 0 0 255
0.31364098 0.0051021874 -0.12112372 0 0 0 255
0.31478161 0.0054119751 -0.1253278 0 0 0 255
0.31543797 0.0055103973 -0.13049528 0 0 0 255
0.25922865 -0.020584397 -0.28612286 0 0 0 255
0.2623252 -0.019422263 -0.28662241 0 0 0 255
0.26487976 -0.018492505 -0.28819185 0 0 0 255
0.26780549 -0.017401062 -0.28900737 0 0 0 255
0.27056807 -0.016370058 -0.29014617 0 0 0 255
0.27403963 -0.015035257 -0.28989714 0 0 0 255
0.27686191 -0.01398997 -0.2909303 0 0 0 255
0.27919137 -0.013160229 -0.29292139 0 0 0 255
0.28141433 -0.01236926 -0.29512876 0 0 0 255
0.28483284 -0.011064418 -0.29498589 0 0 0 255
0.2862972 -0.01060807 -0.29869017 0 0 0 255
0.2890625 -0.0095856413 -0.29982764 0 0 0 255
0.2916097 -0.0086585581 -0.30139261 0 0 0 255
0.29491353 -0.0073954538 -0.30146101 0 0 0 255
0.29751807 -0.0064475089 -0.30292031 0 0 0 255
0.30011919 -0.0054901615 -0.30437961 0 0 0 255
0.30348033 -0.004206188 -0.30434239 0 0 0 255
0.30672956 -0.0029714704 -0.30451643 0 0 0 255
0.30900288 -0.0021621585 -0.30661505 0 0 0 255
0.31203169 -0.0010150969 -0.30721572 0 0 0 255
0.31458133 -9.4592571e-05 -0.30878067 0 0 0 255
0.31723803 0.00088831782 -0.31013435 0 0 0 255
0.32043236 0.0020956025 -0.31041405 0 0 0 255
0.32297307 0.0030203164 -0.311975 0 0 0 255
0.32648653 0.004377827 -0.31161231 0 0 0 255
0.3285026 0.0050668865 -0.31425083 0 0 0 255
0.33152366 0.0062111095 -0.31484789 0 0 0 255
0.33428895 0.0072335452 -0.31598532 0 0 0 255
0.33640763 0.0079705939 -0.3184084 0 0 0 255
0.33873871 0.0088009089 -0.32040048 0 0 0 255
0.34155098 0.0098510683 -0.32142916 0 0 0 255
0.34447134 0.010939494 -0.32224116 0 0 0 255
0.34712243 0.011915043 -0.32359031 0 0 0 255
0.34934494 0.012705848 -0.32579857 0 0 0 255
0.35211295 0.013720751 -0.32693604 0 0 0 255
0.35454747 0.014599353 -0.32871318 0 0 0 255
0.35693201 0.01545871 -0.33059913 0 0 0 255
0.35969687 0.016480967 -0.33173746 0 0 0 255
0.36171141 0.017171606 -0.33437544 0 0 0 255
0.3632403 0.017649315 -0.33797812 0 0 0 255
0.36498502 0.018231116 -0.34115377 0 0 0 255
0.3671115 0.018971011 -0.34358048 0 0 0 255
-0.14201191 -0.16987893 -0.037555553 0 0 0 255
-0.13705258 -0.16790791 -0.034856014 0 0 0 255
-0.13344508 -0.16651511 -0.034551308 0 0 0 255
-0.12989798 -0.16515496 -0.034348242 0 0 0 255
-0.12664585 -0.16391917 -0.034664951 0 0 0 255
-0.12293055 -0.16248713 -0.034143552 0 0 0 255
-0.11991537 -0.16135569 -0.03487578 0 0 0 255
-0.11659893 -0.16009542 -0.035091333 0 0 0 255
-0.11393788 -0.15912692 -0.036444478 0 0 0 255
-0.11127111 -0.15814887 -0.037802629 0 0 0 255
-0.10837502 -0.15706822 -0.03874078 0 0 0 255
-0.10530274 -0.15591384 -0.039366465 0 0 0 255
-0.10311204 -0.15514207 -0.041553728 0 0 0 255
-0.10062866 -0.15423822 -0.043220345 0 0 0 255
-0.09766759 -0.15313497 -0.044057339 0 0 0 255
-0.09553422 -0.15238406 -0.046350259 0 0 0 255
-0.092522338 -0.15126231 -0.0470776 0 0 0 255
-0.090382457 -0.15050903 -0.049374521 0 0 0 255
-0.087316811 -0.14935921 -0.049995702 0 0 0 255
-0.084650367 -0.14838022 -0.051353853 0 0 0 255
-0.08274731 -0.14773014 -0.054065395 0 0 0 255
-0.079966694 -0.14671066 -0.055211727 0 0 0 255
-0.077602066 -0.1458575 -0.057085656 0 0 0 255
-0.075285643 -0.1450325 -0.059068736 0 0 0 255
-0.072395384 -0.14395502 -0.060004257 0 0 0 255
-0.069960415 -0.14307624 -0.061780527 0 0 0 255
-0.067420512 -0.14215183 -0.063340992 0 0 0 255
-0.064815976 -0.14120388 -0.064800292 0 0 0 255
-0.062728368 -0.14048132 -0.067202501 0 0 0 255
0.022133064 -0.10401156 0.067307062 0 0 0 255
0.026443873 -0.10231065 0.069003038 0 0 0 255
0.031264499 -0.10038906 0.071645558 0 0 0 255
0.034988329 -0.098946482 0.072301105 0 0 0 255
0.039111361 -0.097331993 0.073692255 0 0 0 255
0.04369846 -0.095504984 0.07591664 0 0 0 255
0.04701199 -0.094245791 0.075843737 0 0 0 255
0.050786633 -0.09278471 0.076608941 0 0 0 255
0.054906592 -0.091161773 0.078000084 0 0 0 255
0.057924222 -0.090028368 0.077407032 0 0 0 255
0.061465815 -0.088660628 0.077753611 0 0 0 255
0.064603835 -0.087475948 0.077366874 0 0 0 255
0.067503512 -0.086393982 0.076567367 0 0 0 255
0.070057437 -0.085453823 0.075137071 0 0 0 255
0.0730832 -0.084318511 0.074540377 0 0 0 255
0.076270998 -0.083113588 0.07426466 0 0 0 255
0.078538992 -0.082298778 0.072308712 0 0 0 255
0.080754109 -0.081518106 0.07024847 0 0 0 255
0.083310634 -0.08058764 0.068818666 0 0 0 255
0.085466512 -0.079820015 0.066652268 0 0 0 255
0.088142253 -0.078837641 0.065429285 0 0 0 255
0.08995153 -0.078232348 0.062636584 0 0 0 255
0.092509694 -0.077301286 0.061205775 0 0 0 255
0.09477973 -0.076493174 0.059251197 0 0 0 255
0.096821941 -0.075776495 0.05687362 0 0 0 255
0.098294824 -0.07531704 0.053446993 0 0 0 255
0.099880643 -0.074811175 0.050231669 0 0 0 255
0.10140764 -0.074324585 0.046911187 0 0 0 255
0.102878 -0.073859662 0.043483689 0 0 0 255
0.10458107 -0.073301546 0.040476181 0 0 0 255
0.10634274 -0.072721027 0.03757333 0 0 0 255
0.10827468 -0.072054058 0.034984808 0 0 0 255
0.1101543 -0.071423173 0.03228977 0 0 0 255
0.112597 -0.070534125 0.03064815 0 0 0 255
0.11333402 -0.070395701 0.02585162 0 0 0 255
0.1151568 -0.069784448 0.023050427 0 0 0 255
0.11726366 -0.069044225 0.020774007 0 0 0 255
0.1197171 -0.06816192 0.01912789 0 0 0 255
0.12119329 -0.067693822 0.015697759 0 0 0 255
0.12313481 -0.067031883 0.013103873 0 0 0 255
0.12512612 -0.0663497 0.010621011 0 0 0 255
0.12774915 -0.065377995 0.0092878677 0 0 0 255
0.13076644 -0.064243652 0.0086948089 0 0 0 255
0.13469076 -0.062719576 0.0097889863 0 0 0 255
0.1383296 -0.061307922 0.010355886 0 0 0 255
0.1399273 -0.060795605 0.007131692 0 0 0 255
0.14351317 -0.059411742 0.0075919293 0 0 0 255
0.14731838 -0.057923578 0.0084749311 0 0 0 255
0.14999554 -0.056938559 0.0072517991 0 0 0 255
0.1532371 -0.055705562 0.0070822351 0 0 0 255
0.15703934 -0.054226987 0.0079687349 0 0 0 255
0.16033666 -0.052966245 0.007904321 0 0 0 255
0.16362903 -0.051714748 0.0078444146 0 0 0 255
0.16618377 -0.050774295 0.0064136125 0 0 0 255
0.16857907 -0.049913138 0.0046623461 0 0 0 255
0.170968 -0.049052186 0.002914574 0 0 0 255
0.17335579 -0.048190586 0.0011673048 0 0 0 255
0.17591071 -0.047253244 -0.00026299804 0 0 0 255
0.17875583 -0.046198584 -0.0011695251 0 0 0 255
0.18154122 -0.04515928 -0.0021803305 0 0 0 255
0.18421127 -0.044178966 -0.0033998266 0 0 0 255
0.18665671 -0.043297455 -0.0050414428 0 0 0 255
0.18820438 -0.04280439 -0.0083744153 0 0 0 255
0.19104743 -0.041744102 -0.0092809498 0 0 0 255
0.19326748 -0.040954188 -0.011345677 0 0 0 255
0.19912888 -0.039127361 -0.025317762 0 0 0 255
0.20207939 -0.038026892 -0.026007611 0 0 0 255
0.20145053 -0.038490962 -0.033468265 0 0 0 255
0.20149115 -0.03865283 -0.039660182 0 0 0 255
0.2045604 -0.037501689 -0.040142726 0 0 0 255
0.2048334 -0.037568334 -0.045916017 0 0 0 255
0.20683487 -0.036875013 -0.048407745 0 0 0 255
0.20957184 -0.035859711 -0.049529582 0 0 0 255
0.21073724 -0.03554197 -0.053606652 0 0 0 255
0.21168795 -0.03530876 -0.05811521 0 0 0 255
0.21369091 -0.034616999 -0.060607441 0 0 0 255
0.21558747 -0.033969309 -0.063314982 0 0 0 255
0.21654078 -0.033745777 -0.067823052 0 0 0 255
0.21766168 -0.033441052 -0.072014265 0 0 0 255
0.21911687 -0.032991242 -0.075571418 0 0 0 255
0.22029574 -0.032667518 -0.079656988 0 0 0 255
0.2226399 -0.03182286 -0.081519283 0 0 0 255
0.22532263 -0.030837938 -0.082745418 0 0 0 255
0.22872534 -0.029530324 -0.082594499 0 0 0 255
0.23101422 -0.028713234 -0.084561087 0 0 0 255
0.23441076 -0.027408928 -0.084406182 0 0 0 255
0.23737121 -0.026294202 -0.085105397 0 0 0 255
0.2402709 -0.025212228 -0.085904896 0 0 0 255
0.24350059 -0.023984611 -0.086066961 0 0 0 255
0.24650931 -0.022846997 -0.086656012 0 0 0 255
0.25001866 -0.021498427 -0.086289302 0 0 0 255
0.25275061 -0.020488158 -0.087406263 0 0 0 255
0.25575948 -0.019348361 -0.08799582 0 0 0 255
0.25904453 -0.018099524 -0.08805123 0 0 0 255
0.26227421 -0.016871907 -0.088213287 0 0 0 255
0.26516548 -0.015784495 -0.089009285 0 0 0 255
0.26899397 -0.014285728 -0.088000149 0 0 0 255
0.27200669 -0.013155162 -0.088588834 0 0 0 255
0.27484339 -0.012096129 -0.089490488 0 0 0 255
0.27801603 -0.01089672 -0.089758061 0 0 0 255
0.28101304 -0.0097633526 -0.090338767 0 0 0 255
0.28412968 -0.0085843354 -0.090711638 0 0 0 255
0.28696507 -0.0075257719 -0.091613658 0 0 0 255
0.28974444 -0.0064875931 -0.092620969 0 0 0 255
0.29275018 -0.0053595677 -0.09320654 0 0 0 255
0.29569063 -0.0042542517 -0.093891874 0 0 0 255
0.2983095 -0.0032915026 -0.095221013 0 0 0 255
0.30059993 -0.0024759844 -0.0971881 0 0 0 255
0.30299407 -0.0016131327 -0.098940238 0 0 0 255
0.30429548 -0.0012288615 -0.1028225 0 0 0 255
0.30592665 -0.00070329756 -0.10606632 0 0 0 255
0.30771852 -0.00010433048 -0.10898918 0 0 0 255
0.31033695 0.0008571744 -0.11031781 0 0 0 255
0.31153536 0.0011890605 -0.11441676 0 0 0 255
0.31257093 0.0014510453 -0.11883616 0 0 0 255
0.31354803 0.0016928017 -0.12336072 0 0 0 255
0.31398678 0.0016960427 -0.12895483 0 0 0 255
0.26361185 -0.02226676 -0.28619528 0 0 0 255
0.26551598 -0.021626927 -0.2890451 0 0 0 255
0.26833397 -0.020574704 -0.29007727 0 0 0 255
0.2718071 -0.019239321 -0.28982919 0 0 0 255
0.27462849 -0.018196493 -0.2908614 0 0 0 255
0.27711838 -0.017290272 -0.29253203 0 0 0 255
0.27939713 -0.016476862 -0.29463324 0 0 0 255
0.28254217 -0.015289649 -0.29502311 0 0 0 255
0.28606212 -0.013929769 -0.29466441 0 0 0 255
0.28753123 -0.013482355 -0.29836833 0 0 0 255
0.290133 -0.012526892 -0.29982764 0 0 0 255
0.29289716 -0.011502743 -0.30096599 0 0 0 255
0.29566205 -0.010480501 -0.30210432 0 0 0 255
0.2986998 -0.0093376338 -0.30270898 0 0 0 255
0.30141005 -0.0083437487 -0.30395299 0 0 0 255
0.30341411 -0.0076484308 -0.3065874 0 0 0 255
0.30661336 -0.0064318851 -0.30687162 0 0 0 255
0.31001842 -0.0051308498 -0.3067207 0 0 0 255
0.3131046 -0.0039629191 -0.30721572 0 0 0 255
0.31592321 -0.0029125735 -0.30824792 0 0 0 255
0.31879362 -0.0018423423 -0.30917007 0 0 0 255
0.3212859 -0.00094270706 -0.31084067 0 0 0 255
0.32474285 0.00039424002 -0.31058413 0 0 0 255
0.32739547 0.0013681948 -0.31193376 0 0 0 255
0.32978189 0.0022197217 -0.3138192 0 0 0 255
0.3335613 0.0037016869 -0.31291983 0 0 0 255
0.33648157 0.0047890246 -0.31373268 0 0 0 255
0.33876151 0.0056017935 -0.31583443 0 0 0 255
0.34141326 0.0065754503 -0.31718358 0 0 0 255
0.34396046 0.007502526 -0.31874853 0 0 0 255
0.34661308 0.0084764957 -0.32009819 0 0 0 255
0.34958088 0.0095928088 -0.32080051 0 0 0 255
0.3519688 0.010443829 -0.3226878 0 0 0 255
0.35472256 0.011472687 -0.32382029 0 0 0 255
0.3572152 0.012371384 -0.32549089 0 0 0 255
0.35970461 0.013277441 -0.32716238 0 0 0 255
0.36220527 0.01417692 -0.32883748 0 0 0 255
0.36485118 0.015150569 -0.33018228 0 0 0 255
0.36718506 0.015989363 -0.33217871 0 0 0 255
0.36914423 0.016652413 -0.33492327 0 0 0 255
0.37062395 0.017111145 -0.33863521 0 0 0 255
0.37221521 0.017620064 -0.34213585 0 0 0 255
-0.14053524 -0.17264572 -0.036823101 0 0 0 255
-0.13663243 -0.17112948 -0.035998598 0 0 0 255
-0.13225536 -0.16940446 -0.034344487 0 0 0 255
-0.12871477 -0.16804773 -0.034136057 0 0 0 255
-0.12458266 -0.16642782 -0.032892942 0 0 0 255
-0.12185273 -0.16542572 -0.034148052 0 0 0 255
-0.11837028 -0.16408908 -0.034046158 0 0 0 255
-0.11558954 -0.16306743 -0.035192989 0 0 0 255
-0.11263236 -0.16195601 -0.036029488 0 0 0 255
-0.10997209 -0.16098034 -0.037383631 0 0 0 255
-0.10747979 -0.1600807 -0.039054252 0 0 0 255
-0.1049399 -0.15915629 -0.040614709 0 0 0 255
-0.10169427 -0.15792286 -0.040927425 0 0 0 255
-0.099083215 -0.15697256 -0.042390727 0 0 0 255
-0.096132219 -0.15586339 -0.043224592 0 0 0 255
-0.093178473 -0.15476282 -0.04405709 0 0 0 255
-0.090868905 -0.15393817 -0.04603754 0 0 0 255
-0.088908181 -0.15326926 -0.048642058 0 0 0 255
-0.086415887 -0.1523696 -0.050312672 0 0 0 255
-0.083699107 -0.15137337 -0.051560659 0 0 0 255
-0.08115463 -0.15043876 -0.05312562 0 0 0 255
-0.078550085 -0.14949082 -0.054584928 0 0 0 255
-0.076470956 -0.14876923 -0.056983493 0 0 0 255
-0.073344082 -0.14758648 -0.057503529 0 0 0 255
-0.070451081 -0.14651653 -0.05843905 0 0 0 255
-0.068548381 -0.14586657 -0.061149225 0 0 0 255
-0.065943025 -0.14491834 -0.062609032 0 0 0 255
-0.063453123 -0.14401211 -0.064279638 0 0 0 255
-0.061603975 -0.14339231 -0.067096837 0 0 0 255
-0.060684018 -0.14318094 -0.071584404 0 0 0 255
0.02801488 -0.10498141 0.069945946 0 0 0 255
0.031507108 -0.10364015 0.070182502 0 0 0 255
0.035634726 -0.10201548 0.071569145 0 0 0 255
0.03981851 -0.1003693 0.073061951 0 0 0 255
0.043360099 -0.099001557 0.073408529 0 0 0 255
0.047198102 -0.097517431 0.074274532 0 0 0 255
0.050858103 -0.096098088 0.074828424 0 0 0 255
0.054225408 -0.094810799 0.074861676 0 0 0 255
0.057648115 -0.09349484 0.075000077 0 0 0 255
0.061245397 -0.092105769 0.075451948 0 0 0 255
0.063864984 -0.091144897 0.074122801 0 0 0 255
0.067517668 -0.089728214 0.074681193 0 0 0 255
0.070424199 -0.088643745 0.073876336 0 0 0 255
0.073385797 -0.087530725 0.073177986 0 0 0 255
0.075824723 -0.086651579 0.071540371 0 0 0 255
0.07861203 -0.085619017 0.070528693 0 0 0 255
0.081055544 -0.084729679 0.068886571 0 0 0 255
0.083786227 -0.083719864 0.067769244 0 0 0 255
0.085944027 -0.082960054 0.065603346 0 0 0 255
0.088271856 -0.082129851 0.063753918 0 0 0 255
0.090371862 -0.081391074 0.061481498 0 0 0 255
0.092353664 -0.080707021 0.059002273 0 0 0 255
0.094568789 -0.079926349 0.056942031 0 0 0 255
0.096438818 -0.079289369 0.054250989 0 0 0 255
0.098255537 -0.078680299 0.05145466 0 0 0 255
0.10035589 -0.077942461 0.049182244 0 0 0 255
0.10211594 -0.077362537 0.046280384 0 0 0 255
0.10410439 -0.076673947 0.043796659 0 0 0 255
0.10608987 -0.075996011 0.041317798 0 0 0 255
0.1081972 -0.075254567 0.039040882 0 0 0 255
0.109383 -0.074920885 0.035090465 0 0 0 255
0.11126193 -0.074288107 0.032395422 0 0 0 255
0.11336845 -0.073546976 0.030119006 0 0 0 255
0.11416109 -0.073382981 0.025428133 0 0 0 255
0.11649509 -0.072549462 0.023574704 0 0 0 255
0.1183174 -0.071939431 0.020774007 0 0 0 255
0.1196859 -0.071529672 0.017132062 0 0 0 255
0.12196019 -0.07071045 0.015172981 0 0 0 255
0.12424552 -0.069905281 0.013209529 0 0 0 255
0.12578636 -0.069413662 0.0098805502 0 0 0 255
0.12829369 -0.068501092 0.0083400905 0 0 0 255
0.12983522 -0.068011343 0.0050111152 0 0 0 255
0.13369992 -0.06650684 0.0060006343 0 0 0 255
0.13654982 -0.065445125 0.00509011 0 0 0 255
0.14035916 -0.063961834 0.0059729777 0 0 0 255
0.14315107 -0.062919095 0.0049567968 0 0 0 255
0.14610535 -0.06180875 0.004262954 0 0 0 255
0.14878076 -0.06082543 0.0030399635 0 0 0 255
0.15156958 -0.059794456 0.0020277798 0 0 0 255
0.1534531 -0.059151493 -0.00067175925 0 0 0 255
0.15714926 -0.057718985 7.8976154e-07 0 0 0 255
0.16072699 -0.056337021 0.00046466663 0 0 0 255
0.16419354 -0.055006176 0.00071722642 0 0 0 255
0.16765013 -0.053669371 0.00097515434 0 0 0 255
0.17071632 -0.052508712 0.00049125031 0 0 0 255
0.17265749 -0.051846899 -0.0021012612 0 0 0 255
0.17527673 -0.050885089 -0.0034304112 0 0 0 255
0.17788914 -0.049924701 -0.0047555566 0 0 0 255
0.18084294 -0.048814528 -0.0054502748 0 0 0 255
0.18317762 -0.047982886 -0.0073036961 0 0 0 255
0.1851245 -0.047317937 -0.009901084 0 0 0 255
0.18667218 -0.046824876 -0.013234064 0 0 0 255
0.19603297 -0.043846801 -0.033136636 0 0 0 255
0.19680408 -0.043698102 -0.037953671 0 0 0 255
0.19858253 -0.043102961 -0.040868517 0 0 0 255
0.20036705 -0.042506684 -0.043786865 0 0 0 255
0.20321105 -0.041444983 -0.04469303 0 0 0 255
0.20404676 -0.041272774 -0.049408898 0 0 0 255
0.20621744 -0.040509343 -0.051583659 0 0 0 255
0.20688397 -0.040407229 -0.056616504 0 0 0 255
0.2088916 -0.039710585 -0.059112236 0 0 0 255
0.21006268 -0.039389703 -0.063194171 0 0 0 255
0.21168837 -0.038869325 -0.066433989 0 0 0 255
0.21296877 -0.038490586 -0.070303738 0 0 0 255
0.21459104 -0.037960801 -0.073543571 0 0 0 255
0.21604292 -0.037519637 -0.077097222 0 0 0 255
0.21566552 -0.037876219 -0.084150888 0 0 0 255
0.21773733 -0.037157271 -0.086544968 0 0 0 255
0.22180471 -0.035554528 -0.085121319 0 0 0 255
0.22559942 -0.034076571 -0.084229469 0 0 0 255
0.22866595 -0.032916866 -0.084713355 0 0 0 255
0.23157328 -0.031833164 -0.085517362 0 0 0 255
0.23524946 -0.030407935 -0.084833674 0 0 0 255
0.23826119 -0.029274546 -0.085422367 0 0 0 255
0.24104612 -0.028235398 -0.086434044 0 0 0 255
0.24378423 -0.027221821 -0.087555014 0 0 0 255
0.24706852 -0.025965817 -0.087611414 0 0 0 255
0.24985585 -0.024933256 -0.088623092 0 0 0 255
0.25336277 -0.02357813 -0.088256381 0 0 0 255
0.25664672 -0.02232118 -0.08831279 0 0 0 255
0.25965863 -0.021190904 -0.088900983 0 0 0 255
0.2627188 -0.020032458 -0.089380004 0 0 0 255
0.26577765 -0.018874466 -0.089859396 0 0 0 255
0.26922381 -0.017551027 -0.089594349 0 0 0 255
0.27250728 -0.016295314 -0.089650251 0 0 0 255
0.27606601 -0.014920279 -0.089173526 0 0 0 255
0.27939719 -0.013637632 -0.089119777 0 0 0 255
0.28162521 -0.012853332 -0.091188878 0 0 0 255
0.28452489 -0.011771359 -0.091988385 0 0 0 255
0.28823656 -0.010324687 -0.091186173 0 0 0 255
0.29096738 -0.0093126968 -0.092303999 0 0 0 255
0.29418942 -0.0080867931 -0.092461579 0 0 0 255
0.29735446 -0.0068826973 -0.0927248 0 0 0 255
0.29974896 -0.0060207918 -0.094476923 0 0 0 255
0.30154094 -0.0054196566 -0.097400278 0 0 0 255
0.30333322 -0.004820548 -0.10032228 0 0 0 255
0.30534887 -0.0041231215 -0.1028225 0 0 0 255
0.30686882 -0.0036486834 -0.10627762 0 0 0 255
0.30899537 -0.0028991699 -0.10856655 0 0 0 255
0.30947825 -0.0028819889 -0.1140465 0 0 0 255
0.31155053 -0.0021618232 -0.11644109 0 0 0 255
0.31209522 -0.0021146834 -0.12182076 0 0 0 255
0.31268936 -0.0020463616 -0.12708941 0 0 0 255
0.26994649 -0.023283556 -0.28900737 0 0 0 255
0.27119505 -0.022924915 -0.29313877 0 0 0 255
0.27482775 -0.021515489 -0.29256925 0 0 0 255
0.27710342 -0.020713843 -0.2946665 0 0 0 255
0.27981678 -0.019708209 -0.29591447 0 0 0 255
0.28263909 -0.018663973 -0.29694629 0 0 0 255
0.28589439 -0.017427042 -0.29712522 0 0 0 255
0.28849596 -0.016469538 -0.29858366 0 0 0 255
0.29136553 -0.015398517 -0.29950669 0 0 0 255
0.29472667 -0.014114551 -0.29946944 0 0 0 255
0.29716572 -0.013226829 -0.30124968 0 0 0 255
0.30019754 -0.012089312 -0.30185127 0 0 0 255
0.30274478 -0.011162229 -0.30341619 0 0 0 255
0.30550942 -0.010137938 -0.30455369 0 0 0 255
0.30865443 -0.0089507252 -0.30494356 0 0 0 255
0.31141743 -0.0079259276 -0.30608141 0 0 0 255
0.31449777 -0.0067622438 -0.30657244 0 0 0 255
0.3174789 -0.0056410506 -0.30728415 0 0 0 255
0.32023644 -0.0046214759 -0.30841798 0 0 0 255
0.32364497 -0.0033095926 -0.30827108 0 0 0 255
0.32619217 -0.0023825169 -0.30983603 0 0 0 255
0.32900766 -0.0013397187 -0.31086385 0 0 0 255
0.3321926 -0.00012946129 -0.31113908 0 0 0 255
0.33554378 0.0011615306 -0.3110978 0 0 0 255
0.33797911 0.0020393878 -0.31287408 0 0 0 255
0.34095439 0.0031563193 -0.31358179 0 0 0 255
0.3437109 0.0041787326 -0.31471562 0 0 0 255
0.34658128 0.0052489638 -0.31563777 0 0 0 255
0.34891155 0.0060790032 -0.31762937 0 0 0 255
0.35140148 0.0069852322 -0.3193 0 0 0 255
0.35399592 0.0079380274 -0.32075477 0 0 0 255
0.35669899 0.0089313984 -0.32199475 0 0 0 255
0.35924622 0.009858489 -0.32355973 0 0 0 255
0.36163461 0.010709673 -0.32544616 0 0 0 255
0.36412454 0.011615902 -0.32711679 0 0 0 255
0.36667174 0.012542978 -0.32868171 0 0 0 255
0.36889616 0.013325959 -0.33088946 0 0 0 255
0.37106097 0.014095783 -0.333202 0 0 0 255
0.37377021 0.015092462 -0.33444601 0 0 0 255
0.37493679 0.015403196 -0.33880526 0 0 0 255
0.37641618 0.015862882 -0.3425172 0 0 0 255
-0.1398136 -0.17574054 -0.037449904 0 0 0 255
-0.13537934 -0.17399684 -0.03568963 0 0 0 255
-0.13142182 -0.17245111 -0.034758613 0 0 0 255
-0.12699476 -0.1707079 -0.032994337 0 0 0 255
-0.124156 -0.16964808 -0.034038149 0 0 0 255
-0.12066348 -0.1683163 -0.033940747 0 0 0 255
-0.11753662 -0.16713355 -0.034460776 0 0 0 255
-0.11452179 -0.16600116 -0.035192989 0 0 0 255
-0.11126965 -0.16476537 -0.035509709 0 0 0 255
-0.10837403 -0.16368487 -0.036448725 0 0 0 255
-0.10582442 -0.16276439 -0.038013685 0 0 0 255
-0.1024669 -0.16148174 -0.038115092 0 0 0 255
-0.1000381 -0.16060625 -0.039887365 0 0 0 255
-0.096792117 -0.15937378 -0.040200084 0 0 0 255
-0.09418758 -0.15842582 -0.041659385 0 0 0 255
-0.091702268 -0.1575298 -0.043325502 0 0 0 255
-0.088805854 -0.15644901 -0.044265021 0 0 0 255
-0.086434364 -0.15559441 -0.046142947 0 0 0 255
-0.084066309 -0.15475062 -0.048016876 0 0 0 255
-0.081814528 -0.15394916 -0.050101109 0 0 0 255
-0.079788685 -0.1532544 -0.052606344 0 0 0 255
-0.077425346 -0.15240276 -0.054479271 0 0 0 255
-0.074820809 -0.15145481 -0.055938572 0 0 0 255
-0.07233353 -0.15055911 -0.057605688 0 0 0 255
-0.069843635 -0.1496529 -0.059276301 0 0 0 255
-0.067884073 -0.14898226 -0.061881684 0 0 0 255
-0.065861583 -0.14828342 -0.064385921 0 0 0 255
-0.062789634 -0.14712809 -0.065011606 0 0 0 255
-0.060478896 -0.14630519 -0.066991188 0 0 0 255
-0.058050908 -0.14543 -0.068762958 0 0 0 255
0.032209374 -0.10668029 0.069556564 0 0 0 255
0.036688462 -0.10491068 0.071569145 0 0 0 255
0.040578097 -0.1033886 0.072541669 0 0 0 255
0.044701472 -0.10177506 0.073932812 0 0 0 255
0.047900364 -0.10055758 0.073648587 0 0 0 255
0.052315287 -0.098810263 0.075559512 0 0 0 255
0.054927547 -0.097852066 0.074234866 0 0 0 255
0.058586866 -0.096430823 0.074788764 0 0 0 255
0.061954513 -0.095144488 0.074822009 0 0 0 255
0.065894015 -0.093605317 0.075903818 0 0 0 255
0.068394847 -0.092695117 0.074367359 0 0 0 255
0.071704835 -0.091428705 0.074294955 0 0 0 255
0.074436113 -0.090416536 0.073177986 0 0 0 255
0.077397585 -0.089304626 0.072478771 0 0 0 255
0.079493463 -0.08857587 0.070211723 0 0 0 255
0.082567304 -0.087414548 0.069724686 0 0 0 255
0.084436998 -0.086776629 0.067033648 0 0 0 255
0.087168492 -0.085766524 0.065915816 0 0 0 255
0.089783147 -0.084814891 0.064591162 0 0 0 255
0.091422863 -0.084278755 0.061481498 0 0 0 255
0.094034784 -0.083319604 0.060156852 0 0 0 255
0.095907889 -0.082691081 0.057465814 0 0 0 255
0.097611435 -0.082131729 0.054457806 0 0 0 255
0.099593028 -0.081445627 0.051979445 0 0 0 255
0.10146421 -0.080809288 0.049287893 0 0 0 255
0.10334267 -0.080177754 0.046593353 0 0 0 255
0.10492507 -0.079662479 0.043378033 0 0 0 255
0.10760117 -0.078681052 0.04215505 0 0 0 255
0.10901672 -0.078242458 0.038622759 0 0 0 255
0.11083902 -0.077632427 0.035822056 0 0 0 255
0.1128856 -0.076923743 0.033444852 0 0 0 255
0.11487725 -0.076241426 0.030960619 0 0 0 255
0.11561497 -0.076104894 0.02616409 0 0 0 255
0.11754917 -0.075445607 0.023574704 0 0 0 255
0.11925684 -0.074877299 0.020562697 0 0 0 255
0.11994044 -0.07476791 0.01566001 0 0 0 255
0.12278999 -0.073705256 0.01474949 0 0 0 255
0.12557745 -0.072671577 0.013738677 0 0 0 255
0.12695165 -0.072258681 0.010091867 0 0 0 255
0.12752664 -0.072189875 0.004974369 0 0 0 255
0.12946817 -0.071527936 0.0023804866 0 0 0 255
0.13163364 -0.070766397 0.00021008775 0 0 0 255
0.13408524 -0.069881573 -0.0014355257 0 0 0 255
0.13738906 -0.068618461 -0.0015039332 0 0 0 255
0.14091635 -0.067255929 -0.0011497214 0 0 0 255
0.14500979 -0.065643705 0.0002579242 0 0 0 255
0.14751713 -0.064731136 -0.0012825355 0 0 0 255
0.14951447 -0.064046748 -0.0037702583 0 0 0 255
0.15297794 -0.062707447 -0.0035177022 0 0 0 255
0.15695637 -0.061156228 -0.0023173727 0 0 0 255
0.15867376 -0.060591839 -0.0053338818 0 0 0 255
0.16145879 -0.059551589 -0.0063446946 0 0 0 255
0.16509421 -0.058149695 -0.0057751611 0 0 0 255
0.16810581 -0.057018489 -0.0063633546 0 0 0 255
0.17235923 -0.055331007 -0.004634738 0 0 0 255
0.17514735 -0.054298159 -0.0056469254 0 0 0 255
0.17652203 -0.053885095 -0.009292867 0 0 0 255
0.17970628 -0.052672952 -0.0095680878 0 0 0 255
0.18147859 -0.052081112 -0.012478936 0 0 0 255
0.18302707 -0.05158776 -0.015812416 0 0 0 255
0.18401134 -0.051351912 -0.020198822 0 0 0 255
0.19561695 -0.0475749 -0.042182513 0 0 0 255
0.19768387 -0.046858814 -0.044572216 0 0 0 255
0.19839954 -0.046737734 -0.049495757 0 0 0 255
0.1998495 -0.046289828 -0.053048551 0 0 0 255
0.20163415 -0.045691375 -0.055967405 0 0 0 255
0.20386308 -0.044905659 -0.058036141 0 0 0 255
0.20637694 -0.043990724 -0.059580594 0 0 0 255
0.20671481 -0.044036966 -0.065252252 0 0 0 255
0.20760444 -0.043834496 -0.069862463 0 0 0 255
0.20817171 -0.04377595 -0.075114615 0 0 0 255
0.21040431 -0.042981468 -0.077188216 0 0 0 255
0.21124654 -0.042806894 -0.081908084 0 0 0 255
0.21359767 -0.041959681 -0.083773516 0 0 0 255
0.21549684 -0.041321676 -0.086480558 0 0 0 255
0.21851267 -0.040179338 -0.087073252 0 0 0 255
0.22274962 -0.038507439 -0.085332632 0 0 0 255
0.22626273 -0.037148997 -0.084969923 0 0 0 255
0.2298921 -0.035749301 -0.08439552 0 0 0 255
0.23262942 -0.034734949 -0.085517362 0 0 0 255
0.23574984 -0.033546038 -0.085894234 0 0 0 255
0.23864987 -0.032463938 -0.086695105 0 0 0 255
0.24188335 -0.031226426 -0.086861171 0 0 0 255
0.24511109 -0.029998459 -0.087022237 0 0 0 255
0.24834812 -0.028768174 -0.087188795 0 0 0 255
0.25135082 -0.027632751 -0.087772988 0 0 0 255
0.25458539 -0.026402295 -0.087939411 0 0 0 255
0.25747699 -0.025315806 -0.088735417 0 0 0 255
0.26015937 -0.024328887 -0.089962907 0 0 0 255
0.26321858 -0.0231729 -0.090440929 0 0 0 255
0.26671982 -0.021819852 -0.09007071 0 0 0 255
0.27021989 -0.020466149 -0.089700013 0 0 0 255
0.27279109 -0.019530341 -0.09113881 0 0 0 255
0.27645388 -0.018109977 -0.090445757 0 0 0 255
0.27951398 -0.016951531 -0.090924777 0 0 0 255
0.28373027 -0.015286088 -0.089171678 0 0 0 255
0.28573859 -0.014591321 -0.091667406 0 0 0 255
0.2889033 -0.013386287 -0.091930628 0 0 0 255
0.29196346 -0.012227818 -0.092409655 0 0 0 255
0.29479966 -0.011168957 -0.093312196 0 0 0 255
0.29719496 -0.010307811 -0.095063448 0 0 0 255
0.30019972 -0.0091780126 -0.095647648 0 0 0 255
0.30259502 -0.0083158016 -0.097400278 0 0 0 255
0.30455345 -0.0076381266 -0.10000531 0 0 0 255
0.30552644 -0.0074053183 -0.10452586 0 0 0 255
0.30710453 -0.0069097206 -0.10787583 0 0 0 255
0.30933666 -0.0061164647 -0.10994893 0 0 0 255
0.31031424 -0.005873464 -0.114474 0 0 0 255
0.31090951 -0.0058058053 -0.11974315 0 0 0 255
0.31172779 -0.0056399256 -0.12458919 0 0 0 255
0.27464965 -0.024815395 -0.28843781 0 0 0 255
0.27594906 -0.024438262 -0.29245961 0 0 0 255
0.27909985 -0.023246787 -0.29285347 0 0 0 255
0.28170168 -0.022291318 -0.29431278 0 0 0 255
0.28436112 -0.02131594 -0.29566643 0 0 0 255
0.28685263 -0.020416588 -0.29733655 0 0 0 255
0.28972954 -0.019343995 -0.29826269 0 0 0 255
0.29270124 -0.018219821 -0.29896992 0 0 0 255
0.29547483 -0.017199717 -0.30011138 0 0 0 255
0.29802281 -0.016272351 -0.30167681 0 0 0 255
0.30116314 -0.015076205 -0.30206707 0 0 0 255
0.30392763 -0.014054067 -0.30320403 0 0 0 255
0.30754662 -0.012647524 -0.30262652 0 0 0 255
0.31020606 -0.011672154 -0.30398014 0 0 0 255
0.31340107 -0.010466725 -0.3042599 0 0 0 255
0.31648451 -0.0092912689 -0.30475491 0 0 0 255
0.3194041 -0.008202076 -0.3055678 0 0 0 255
0.32243651 -0.0070622191 -0.30616897 0 0 0 255
0.32460356 -0.0063000917 -0.30848238 0 0 0 255
0.3282229 -0.004895553 -0.30790347 0 0 0 255
0.33119786 -0.0037776679 -0.30861118 0 0 0 255
0.33368775 -0.0028714538 -0.31028181 0 0 0 255
0.33623496 -0.0019443631 -0.31184679 0 0 0 255
0.33920991 -0.00082755089 -0.31255311 0 0 0 255
0.34250653 0.0004350543 -0.31261751 0 0 0 255
0.34504724 0.0013597757 -0.31417847 0 0 0 255
0.34765178 0.002307713 -0.31563777 0 0 0 255
0.34992474 0.0031168908 -0.31773502 0 0 0 255
0.35252002 0.004069984 -0.31919032 0 0 0 255
0.35538876 0.0051407069 -0.32011282 0 0 0 255
0.3578814 0.0060393959 -0.32178345 0 0 0 255
0.36010355 0.0068300813 -0.32399035 0 0 0 255
0.36259568 0.0077286065 -0.32566184 0 0 0 255
0.36556461 0.0088443011 -0.3263647 0 0 0 255
0.36837721 0.0098934919 -0.32739335 0 0 0 255
0.37054715 0.010649204 -0.32970589 0 0 0 255
0.37340939 0.011717543 -0.33062443 0 0 0 255
0.37564158 0.012503371 -0.33283582 0 0 0 255
0.37764561 0.013198704 -0.3354702 0 0 0 255
0.3796604 0.013887301 -0.33810911 0 0 0 255
0.38104445 0.01429525 -0.34204084 0 0 0 255
-0.13874312 -0.17868179 -0.037449904 0 0 0 255
-0.13331111 -0.17649513 -0.033921249 0 0 0 255
-0.12911449 -0.17485493 -0.032575093 0 0 0 255
-0.12563273 -0.17351642 -0.032473192 0 0 0 255
-0.12279169 -0.17246431 -0.033517875 0 0 0 255
-0.11924379 -0.17110385 -0.033315316 0 0 0 255
-0.11640503 -0.17004406 -0.034359127 0 0 0 255
-0.11345129 -0.16894241 -0.035192989 0 0 0 255
-0.10997033 -0.16760418 -0.035090584 0 0 0 255
-0.10659897 -0.16631648 -0.035200488 0 0 0 255
-0.10370516 -0.16524731 -0.036135152 0 0 0 255
-0.10074881 -0.16413513 -0.036972512 0 0 0 255
-0.09808968 -0.1631588 -0.038326155 0 0 0 255
-0.095603555 -0.16226247 -0.039992772 0 0 0 255
-0.092649341 -0.16116065 -0.040825769 0 0 0 255
-0.09022101 -0.16028643 -0.04259754 0 0 0 255
-0.087500319 -0.15927809 -0.043850027 0 0 0 255
-0.08489579 -0.15833017 -0.045309335 0 0 0 255
-0.082941234 -0.15766349 -0.047911219 0 0 0 255
-0.080448598 -0.15676478 -0.049581833 0 0 0 255
-0.078139499 -0.15594245 -0.051560421 0 0 0 255
-0.075306907 -0.1548849 -0.052601591 0 0 0 255
-0.073861882 -0.15444624 -0.056149885 0 0 0 255
-0.071148515 -0.15344059 -0.057397872 0 0 0 255
-0.069069728 -0.15271807 -0.059796449 0 0 0 255
-0.067330971 -0.15214908 -0.062825456 0 0 0 255
-0.064092197 -0.1509171 -0.063134179 0 0 0 255
-0.062823728 -0.15055119 -0.066994928 0 0 0 255
-0.059811845 -0.1494284 -0.067723639 0 0 0 255
-0.057616569 -0.14864749 -0.069914028 0 0 0 255
-0.055765022 -0.14803426 -0.072731234 0 0 0 255
0.030893616 -0.11061242 0.065267578 0 0 0 255
0.036237255 -0.10845792 0.068849362 0 0 0 255
0.040015332 -0.10698601 0.069610566 0 0 0 255
0.044487562 -0.10521782 0.07162714 0 0 0 255
0.048546769 -0.10362658 0.072916634 0 0 0 255
0.052612476 -0.10203296 0.07420212 0 0 0 255
0.056326725 -0.1005843 0.074861676 0 0 0 255
0.059058212 -0.099574178 0.073743835 0 0 0 255
0.062598176 -0.098205969 0.074090056 0 0 0 255
0.066657379 -0.096614718 0.075379536 0 0 0 255
0.069103628 -0.095732898 0.073737428 0 0 0 255
0.072122067 -0.09460026 0.073145241 0 0 0 255
0.075544432 -0.093283363 0.073283643 0 0 0 255
0.078505561 -0.092170514 0.072584428 0 0 0 255
0.080887161 -0.091312222 0.070841163 0 0 0 255
0.083560511 -0.090323262 0.069618165 0 0 0 255
0.086119138 -0.089392029 0.068188228 0 0 0 255
0.088330708 -0.088603087 0.066127121 0 0 0 255
0.090433791 -0.087873824 0.063856073 0 0 0 255
0.09252844 -0.087138064 0.061587162 0 0 0 255
0.095316231 -0.086105332 0.060576342 0 0 0 255
0.097189337 -0.085476808 0.057885304 0 0 0 255
0.09911634 -0.08481802 0.055299923 0 0 0 255
0.10144748 -0.08397916 0.053446993 0 0 0 255
0.10326327 -0.083371498 0.050650299 0 0 0 255
0.10479107 -0.08288461 0.047329314 0 0 0 255
0.1067826 -0.082204476 0.044845581 0 0 0 255
0.10876384 -0.081517436 0.04236722 0 0 0 255
0.11064346 -0.080886543 0.039672174 0 0 0 255
0.11182858 -0.080549926 0.035720401 0 0 0 255
0.11433592 -0.079637356 0.034179941 0 0 0 255
0.11564013 -0.079252064 0.03043684 0 0 0 255
0.11712329 -0.078799516 0.027004836 0 0 0 255
0.1183695 -0.078433216 0.023156084 0 0 0 255
0.11968249 -0.078053243 0.019408114 0 0 0 255
0.12122332 -0.077561617 0.016079139 0 0 0 255
0.12333386 -0.076827519 0.013803087 0 0 0 255
0.12572348 -0.075968437 0.012055315 0 0 0 255
0.12556502 -0.076226175 0.005566556 0 0 0 255
0.12772967 -0.075464934 0.0033966601 0 0 0 255
0.13000965 -0.074643634 0.0014340803 0 0 0 255
0.13087666 -0.074460037 -0.0031601377 0 0 0 255
0.13309816 -0.073678114 -0.0052252449 0 0 0 255
0.1361205 -0.072533399 -0.0058219284 0 0 0 255
0.13919388 -0.071372256 -0.0063098297 0 0 0 255
0.14108014 -0.070737883 -0.009008009 0 0 0 255
0.14438054 -0.069465376 -0.0090764128 0 0 0 255
0.14864367 -0.067781813 -0.0073523 0 0 0 255
