ply
format ascii 1.0
comment PCL generated
element vertex 1025
property float x
property float y
property float z
property uchar red
property uchar green
property uchar blue
property uchar alpha
element camera 0
property float view_px
property float view_py
property float view_pz
property float x_axisx
property float x_axisy
property float x_axisz
property float y_axisx
property float y_axisy
property float y_axisz
property float z_axisx
property float z_axisy
property float z_axisz
property float focal
property float scalex
property float scaley
property float centerx
property float centery
property int viewportx
property int viewporty
property float k1
property float k2
end_header
0.14664689 -0.10845445 -0.015998382 0 0 0 255
0.14836995 -0.10788799 -0.019018389 0 0 0 255
0.14873689 -0.10793959 -0.024563881 0 0 0 255
0.23072222 -0.078827158 -0.096355423 0 0 0 255
0.23445639 -0.077362739 -0.095570087 0 0 0 255
0.23791379 -0.076024562 -0.095314018 0 0 0 255
0.24164914 -0.074561827 -0.094527826 0 0 0 255
0.24515265 -0.073197305 -0.094161101 0 0 0 255
0.24866417 -0.071831994 -0.093798891 0 0 0 255
0.25200957 -0.070545241 -0.093753636 0 0 0 255
0.25573689 -0.069083296 -0.092962928 0 0 0 255
0.25813884 -0.068217583 -0.09471871 0 0 0 255
0.26263466 -0.066405706 -0.092441805 0 0 0 255
0.26575541 -0.065217726 -0.092818692 0 0 0 255
0.26958895 -0.063708626 -0.091813169 0 0 0 255
0.27298367 -0.062401794 -0.091657773 0 0 0 255
0.2765936 -0.060993224 -0.091075733 0 0 0 255
0.28048182 -0.059453547 -0.089965053 0 0 0 255
0.28419694 -0.05799605 -0.089166865 0 0 0 255
0.2874231 -0.056761198 -0.089328423 0 0 0 255
0.29075465 -0.055479482 -0.089274675 0 0 0 255
0.29353923 -0.054439425 -0.090286344 0 0 0 255
0.29648745 -0.053330198 -0.0909767 0 0 0 255
0.29970708 -0.052097715 -0.091134265 0 0 0 255
0.30243057 -0.051088408 -0.09224759 0 0 0 255
0.30477557 -0.050244503 -0.094109021 0 0 0 255
0.30794016 -0.049040578 -0.094373122 0 0 0 255
0.31083137 -0.047953166 -0.095169112 0 0 0 255
0.31333792 -0.047040895 -0.096709073 0 0 0 255
0.3151871 -0.046421088 -0.099526256 0 0 0 255
0.31719828 -0.045731664 -0.10202251 0 0 0 255
0.31915981 -0.045062445 -0.10462752 0 0 0 255
0.3207944 -0.044546261 -0.10787133 0 0 0 255
0.32265323 -0.043930382 -0.11069302 0 0 0 255
0.32466853 -0.043232001 -0.11319325 0 0 0 255
0.32423341 -0.043643661 -0.12048762 0 0 0 255
0.3340047 -0.046102017 -0.30417287 0 0 0 255
0.33729857 -0.044831887 -0.30423728 0 0 0 255
0.34064317 -0.043545425 -0.30419153 0 0 0 255
0.3438898 -0.042300992 -0.30436611 0 0 0 255
0.34750587 -0.040889099 -0.30378807 0 0 0 255
0.35042351 -0.039793164 -0.30460006 0 0 0 255
0.35446098 -0.038191721 -0.30315995 0 0 0 255
0.35748333 -0.037047029 -0.30375662 0 0 0 255
0.35986769 -0.036188796 -0.30564341 0 0 0 255
0.36262506 -0.035167158 -0.3067764 0 0 0 255
0.36548811 -0.034098506 -0.30769542 0 0 0 255
0.36877581 -0.032831684 -0.30775583 0 0 0 255
0.37121144 -0.031954795 -0.30953208 0 0 0 255
0.37412134 -0.030861676 -0.31034043 0 0 0 255
0.3776761 -0.029478461 -0.30986321 0 0 0 255
0.37984401 -0.028716058 -0.31217715 0 0 0 255
0.38259599 -0.027697414 -0.3133066 0 0 0 255
0.38556245 -0.026581571 -0.31400931 0 0 0 255
0.38826349 -0.025582537 -0.31524932 0 0 0 255
0.39112312 -0.024505571 -0.31616694 0 0 0 255
0.3935042 -0.023657039 -0.31804889 0 0 0 255
0.39567366 -0.022901505 -0.3203623 0 0 0 255
0.39715999 -0.022458449 -0.32407475 0 0 0 255
0.40070426 -0.02107057 -0.32359385 0 0 0 255
0.40244749 -0.02050741 -0.32676503 0 0 0 255
0.40419737 -0.019939706 -0.32994071 0 0 0 255
0.40478653 -0.019901901 -0.33548352 0 0 0 255
-0.11916964 -0.21443023 -0.02747836 0 0 0 255
-0.11521567 -0.21287727 -0.026546836 0 0 0 255
-0.11120791 -0.21129519 -0.02551052 0 0 0 255
-0.10708059 -0.20966318 -0.024266034 0 0 0 255
-0.10336757 -0.20822239 -0.023745142 0 0 0 255
-0.0994168 -0.20666212 -0.022814482 0 0 0 255
-0.096289933 -0.20547937 -0.023334518 0 0 0 255
-0.093393505 -0.20439857 -0.024274036 0 0 0 255
-0.090852804 -0.20347387 -0.025834993 0 0 0 255
-0.088255122 -0.20252843 -0.027288929 0 0 0 255
-0.085303769 -0.2014202 -0.028122798 0 0 0 255
-0.082699232 -0.20047227 -0.029582102 0 0 0 255
-0.080562651 -0.19972868 -0.031874157 0 0 0 255
-0.077035196 -0.19835758 -0.031662591 0 0 0 255
-0.074666806 -0.19751474 -0.03353652 0 0 0 255
-0.07223963 -0.19663879 -0.035309151 0 0 0 255
-0.070685662 -0.19616047 -0.03864263 0 0 0 255
-0.069016486 -0.19562426 -0.041768294 0 0 0 255
-0.066357359 -0.19464794 -0.043121941 0 0 0 255
-0.064624228 -0.19408631 -0.046146449 0 0 0 255
-0.062313497 -0.19326341 -0.048126031 0 0 0 255
-0.060003925 -0.19243982 -0.050105117 0 0 0 255
-0.057983149 -0.1917565 -0.052605342 0 0 0 255
-0.056252062 -0.19118923 -0.055629853 0 0 0 255
-0.055152353 -0.19091138 -0.059805449 0 0 0 255
-0.054236162 -0.19070987 -0.064289011 0 0 0 255
-0.052906476 -0.19033128 -0.06804461 0 0 0 255
-0.051284902 -0.18981984 -0.071280435 0 0 0 255
0.068309717 -0.13951571 0.053494431 0 0 0 255
0.073346876 -0.13747272 0.056561302 0 0 0 255
0.076996818 -0.13604745 0.05711833 0 0 0 255
0.080655538 -0.13462856 0.05767186 0 0 0 255
0.084591664 -0.13307363 0.058753531 0 0 0 255
0.087328985 -0.13205925 0.057631705 0 0 0 255
0.090803191 -0.13070752 0.057877131 0 0 0 255
0.093652412 -0.12964392 0.056966603 0 0 0 255
0.096898101 -0.12840196 0.056793042 0 0 0 255
0.09980157 -0.12730905 0.055988181 0 0 0 255
0.10212892 -0.12648007 0.054139245 0 0 0 255
0.10514476 -0.12533775 0.053546559 0 0 0 255
0.10816732 -0.12419508 0.052949004 0 0 0 255
0.11055131 -0.12334337 0.051205732 0 0 0 255
0.11327905 -0.12232397 0.05008927 0 0 0 255
0.11527412 -0.12165108 0.04760503 0 0 0 255
0.11748685 -0.12086383 0.045544796 0 0 0 255
0.11987448 -0.12000334 0.043796659 0 0 0 255
0.12204222 -0.11925055 0.041626766 0 0 0 255
0.12425767 -0.11847083 0.039566524 0 0 0 255
0.12573741 -0.11800888 0.036134519 0 0 0 255
0.1280167 -0.11720591 0.034175944 0 0 0 255
0.1300087 -0.11652561 0.031693079 0 0 0 255
0.13216636 -0.11576691 0.029526314 0 0 0 255
0.13364917 -0.11531448 0.026095681 0 0 0 255
0.13547386 -0.11471103 0.023294985 0 0 0 255
0.13718461 -0.11415117 0.020282976 0 0 0 255
0.13855551 -0.113748 0.016641032 0 0 0 255
0.1397025 -0.11344443 0.012575593 0 0 0 255
0.14062189 -0.11324921 0.0080915354 0 0 0 255
0.14238878 -0.11266785 0.0051856823 0 0 0 255
0.14365417 -0.11231264 0.0013275594 0 0 0 255
0.14530998 -0.11178023 -0.00179011 0 0 0 255
0.14590168 -0.11173196 -0.006912604 0 0 0 255
0.14683169 -0.11152544 -0.011404667 0 0 0 255
0.14736491 -0.11149739 -0.01663232 0 0 0 255
0.14964715 -0.11068378 -0.018595766 0 0 0 255
0.14950573 -0.11096404 -0.025088159 0 0 0 255
0.23606648 -0.080019258 -0.094509162 0 0 0 255
0.23858032 -0.079104319 -0.096053615 0 0 0 255
0.24187455 -0.07783512 -0.096118033 0 0 0 255
0.24538526 -0.076470107 -0.095755309 0 0 0 255
0.24944946 -0.074861087 -0.094331168 0 0 0 255
0.25284222 -0.073546439 -0.094176263 0 0 0 255
0.2569049 -0.071935825 -0.092751615 0 0 0 255
0.26002729 -0.070747271 -0.093129501 0 0 0 255
0.26424038 -0.069055326 -0.091379881 0 0 0 255
0.26703572 -0.068021961 -0.092396066 0 0 0 255
0.27047586 -0.066680513 -0.092130132 0 0 0 255
0.2741493 -0.065247752 -0.091446459 0 0 0 255
0.2770409 -0.064161293 -0.09224245 0 0 0 255
0.28043365 -0.062846623 -0.092087552 0 0 0 255
0.28398785 -0.0614658 -0.091610685 0 0 0 255
0.28820446 -0.059781075 -0.089861564 0 0 0 255
0.29082376 -0.058819249 -0.091190718 0 0 0 255
0.29459295 -0.057334632 -0.090286344 0 0 0 255
0.29770118 -0.056150138 -0.090655744 0 0 0 255
0.30064881 -0.055043288 -0.091346443 0 0 0 255
0.30375621 -0.0538591 -0.091715321 0 0 0 255
0.30675545 -0.052714296 -0.092299499 0 0 0 255
0.3103621 -0.051314354 -0.09171398 0 0 0 255
0.31138623 -0.051064007 -0.096124887 0 0 0 255
0.31406328 -0.050081149 -0.097347505 0 0 0 255
0.315687 -0.049559355 -0.1005877 0 0 0 255
0.31737974 -0.049022019 -0.10372637 0 0 0 255
0.31934124 -0.0483528 -0.10633139 0 0 0 255
0.32157657 -0.04756584 -0.10840498 0 0 0 255
0.32299387 -0.047145791 -0.11207542 0 0 0 255
0.324083 -0.046872832 -0.11638516 0 0 0 255
0.32387176 -0.047184899 -0.12325604 0 0 0 255
0.33804977 -0.047925517 -0.30487922 0 0 0 255
0.34171364 -0.046486661 -0.30419153 0 0 0 255
0.34500754 -0.045216523 -0.30425596 0 0 0 255
0.34830207 -0.043948263 -0.30432037 0 0 0 255
0.35090011 -0.043002695 -0.30577564 0 0 0 255
0.35403129 -0.041800305 -0.30616105 0 0 0 255
0.35705709 -0.040664986 -0.30675775 0 0 0 255
0.36055854 -0.039294824 -0.306391 0 0 0 255
0.36358362 -0.038157642 -0.3069877 0 0 0 255
0.36670849 -0.036959648 -0.30736995 0 0 0 255
0.37015858 -0.035624161 -0.30710936 0 0 0 255
0.37275389 -0.034672126 -0.30856332 0 0 0 255
0.37545389 -0.033670291 -0.30980331 0 0 0 255
0.37772912 -0.032868803 -0.31190142 0 0 0 255
0.38059264 -0.031800002 -0.31281957 0 0 0 255
0.38350242 -0.030706882 -0.31362793 0 0 0 255
0.3865256 -0.029561877 -0.31422511 0 0 0 255
0.38885507 -0.028732151 -0.31621617 0 0 0 255
0.39192536 -0.027562544 -0.31670409 0 0 0 255
0.3948943 -0.026446834 -0.31740695 0 0 0 255
0.39737684 -0.025543287 -0.31907305 0 0 0 255
0.39928213 -0.024910524 -0.32192326 0 0 0 255
0.40182284 -0.023985818 -0.32348421 0 0 0 255
0.40346798 -0.023466855 -0.32687521 0 0 0 255
0.40547624 -0.022780627 -0.32951006 0 0 0 255
0.40547702 -0.02300702 -0.33623111 0 0 0 255
-0.11657706 -0.21668553 -0.024774551 0 0 0 255
-0.11268737 -0.215156 -0.023945563 0 0 0 255
-0.10820456 -0.21336587 -0.022078775 0 0 0 255
-0.10466636 -0.21200152 -0.021871708 0 0 0 255
-0.10100542 -0.21057969 -0.021460839 0 0 0 255
-0.098346308 -0.20960337 -0.022814482 0 0 0 255
-0.095045283 -0.20834127 -0.023022048 0 0 0 255
-0.092617288 -0.2074661 -0.024793819 0 0 0 255
-0.0892625 -0.20617591 -0.024895228 0 0 0 255
-0.087125108 -0.20543206 -0.02718778 0 0 0 255
-0.083469182 -0.20401418 -0.026773404 0 0 0 255
-0.081166461 -0.20319204 -0.028748482 0 0 0 255
-0.077921651 -0.20195891 -0.029060703 0 0 0 255
-0.074970648 -0.20084976 -0.029894572 0 0 0 255
-0.07289803 -0.20013054 -0.03228914 0 0 0 255
-0.070875973 -0.19944672 -0.034789011 0 0 0 255
-0.069206797 -0.19891053 -0.037914675 0 0 0 255
-0.066721484 -0.19801447 -0.039580785 0 0 0 255
-0.065232627 -0.19755986 -0.043016292 0 0 0 255
-0.06285806 -0.19671372 -0.044894211 0 0 0 255
-0.06130683 -0.19622788 -0.04822769 0 0 0 255
-0.058990747 -0.19540195 -0.050210766 0 0 0 255
-0.057493888 -0.19494654 -0.053650767 0 0 0 255
-0.055879634 -0.19443776 -0.056882091 0 0 0 255
-0.055072151 -0.1942918 -0.061577469 0 0 0 255
-0.053627126 -0.19385312 -0.065125749 0 0 0 255
-0.053571593 -0.19404468 -0.071179025 0 0 0 255
0.072386138 -0.14126714 0.052897744 0 0 0 255
0.076622583 -0.13958476 0.0544957 0 0 0 255
0.080611326 -0.13800107 0.05568403 0 0 0 255
0.084438287 -0.13650288 0.056554388 0 0 0 255
0.087920457 -0.13515675 0.056795452 0 0 0 255
0.090998203 -0.13398337 0.056303918 0 0 0 255
0.094188839 -0.13276996 0.056023836 0 0 0 255
0.097718433 -0.13138956 0.056374416 0 0 0 255
0.10044925 -0.13037758 0.055256583 0 0 0 255
0.10352959 -0.12921388 0.054765549 0 0 0 255
0.10608351 -0.12827373 0.053335246 0 0 0 255
0.10847471 -0.12742153 0.051587977 0 0 0 255
0.11160965 -0.12622841 0.051201232 0 0 0 255
0.11450659 -0.12513889 0.050401736 0 0 0 255
0.11729152 -0.12409977 0.049390052 0 0 0 255
0.11917161 -0.12346764 0.04669451 0 0 0 255
0.12110169 -0.12281837 0.044110492 0 0 0 255
0.12320444 -0.12208712 0.041838072 0 0 0 255
0.12536256 -0.12132824 0.039672174 0 0 0 255
0.12758487 -0.12054603 0.037606571 0 0 0 255
0.12923385 -0.12001503 0.034492914 0 0 0 255
0.1311709 -0.11936218 0.031904392 0 0 0 255
0.13310511 -0.1187029 0.029315004 0 0 0 255
0.13459066 -0.11825801 0.025884371 0 0 0 255
0.13601637 -0.11782849 0.022347216 0 0 0 255
0.13761109 -0.11732682 0.01912789 0 0 0 255
0.13926655 -0.11679347 0.016010229 0 0 0 255
0.14063734 -0.11639247 0.012368783 0 0 0 255
0.14150673 -0.11621545 0.0077745654 0 0 0 255
0.14247955 -0.11599123 0.0033966601 0 0 0 255
0.14391452 -0.11556686 -0.00014449283 0 0 0 255
0.14597343 -0.11485153 -0.0025297031 0 0 0 255
0.14678892 -0.11470479 -0.007229574 0 0 0 255
0.14748862 -0.11459912 -0.012140263 0 0 0 255
0.14955048 -0.11389337 -0.01452633 0 0 0 255
0.15036094 -0.11373782 -0.019225204 0 0 0 255
0.1498284 -0.1141934 -0.026458055 0 0 0 255
0.23457527 -0.084067397 -0.099384435 0 0 0 255
0.23941903 -0.082104385 -0.096479736 0 0 0 255
0.24226823 -0.081040807 -0.097390264 0 0 0 255
0.24550173 -0.079803273 -0.09755633 0 0 0 255
0.24989134 -0.078038566 -0.095494248 0 0 0 255
0.25329098 -0.076722488 -0.095343351 0 0 0 255
0.25652444 -0.075484984 -0.095509402 0 0 0 255
0.26179299 -0.07332164 -0.091746606 0 0 0 255
0.26529717 -0.071958981 -0.091379881 0 0 0 255
0.26814038 -0.070897579 -0.092285544 0 0 0 255
0.27197993 -0.069386281 -0.091284886 0 0 0 255
0.27482006 -0.068316393 -0.092190549 0 0 0 255
0.27864578 -0.066810116 -0.09118139 0 0 0 255
0.28215128 -0.065446995 -0.090814307 0 0 0 255
0.28498667 -0.064388439 -0.091716334 0 0 0 255
0.28881779 -0.06287276 -0.090710819 0 0 0 255
0.29236645 -0.061491817 -0.090230949 0 0 0 255
0.29536828 -0.060356691 -0.09081462 0 0 0 255
0.29781914 -0.059464686 -0.092461251 0 0 0 255
0.30148456 -0.058032736 -0.091773063 0 0 0 255
0.30432123 -0.056973681 -0.092674717 0 0 0 255
0.30693075 -0.056007966 -0.093999356 0 0 0 255
0.30954966 -0.055045202 -0.095328525 0 0 0 255
0.31205618 -0.054132931 -0.09686847 0 0 0 255
0.31467462 -0.053171426 -0.098197117 0 0 0 255
0.31608689 -0.052755319 -0.10186406 0 0 0 255
0.31810459 -0.052063525 -0.10436431 0 0 0 255
0.31990534 -0.051468797 -0.10729116 0 0 0 255
0.32191721 -0.05078125 -0.10978737 0 0 0 255
0.32284603 -0.050582595 -0.1144181 0 0 0 255
0.32388705 -0.050335661 -0.11883749 0 0 0 255
0.33965072 -0.050621577 -0.30380666 0 0 0 255
0.34187523 -0.04983747 -0.30601355 0 0 0 255
0.34484676 -0.04871127 -0.3067199 0 0 0 255
0.34824556 -0.047395498 -0.3065685 0 0 0 255
0.35175791 -0.046029881 -0.30620679 0 0 0 255
0.35547176 -0.044572845 -0.30540895 0 0 0 255
0.35891989 -0.043230608 -0.30514753 0 0 0 255
0.36221641 -0.041970149 -0.30521142 0 0 0 255
0.36475369 -0.041036054 -0.30677238 0 0 0 255
0.36745712 -0.040043592 -0.30801237 0 0 0 255
0.37128446 -0.038537785 -0.30700284 0 0 0 255
0.37424824 -0.037414417 -0.30770558 0 0 0 255
0.37657931 -0.036584094 -0.30969763 0 0 0 255
0.37959468 -0.03544192 -0.3102912 0 0 0 255
0.3821896 -0.034488961 -0.31174514 0 0 0 255
0.38547698 -0.0332212 -0.31180555 0 0 0 255
0.38838765 -0.032127768 -0.31261441 0 0 0 255
0.39113867 -0.031110555 -0.31374425 0 0 0 255
0.39373329 -0.030155584 -0.31519955 0 0 0 255
0.39606628 -0.029333055 -0.31719112 0 0 0 255
0.3992905 -0.028090402 -0.31735319 0 0 0 255
0.40188468 -0.027136669 -0.31880799 0 0 0 255
0.40432304 -0.02626729 -0.32058427 0 0 0 255
0.40474263 -0.026298687 -0.32644409 0 0 0 255
0.40654331 -0.02571249 -0.32951006 0 0 0 255
0.40802884 -0.025269717 -0.333222 0 0 0 255
-0.11328194 -0.2186245 -0.020823903 0 0 0 255
-0.11102271 -0.21783842 -0.022909142 0 0 0 255
-0.10608269 -0.21583721 -0.020205103 0 0 0 255
-0.10336213 -0.21483107 -0.021457084 0 0 0 255
-0.099825419 -0.21346512 -0.021249525 0 0 0 255
-0.096691236 -0.21227971 -0.021774061 0 0 0 255
-0.093449503 -0.21103813 -0.02208627 0 0 0 255
-0.090966113 -0.21013427 -0.023752894 0 0 0 255
-0.088249326 -0.20913802 -0.025000885 0 0 0 255
-0.085179776 -0.20797613 -0.025626566 0 0 0 255
-0.08234445 -0.20692611 -0.026667748 0 0 0 255
-0.07956773 -0.20589848 -0.02781358 0 0 0 255
-0.077613398 -0.20522973 -0.030414607 0 0 0 255
-0.075008854 -0.20428179 -0.031873897 0 0 0 255
-0.071946412 -0.20312464 -0.032495953 0 0 0 255
-0.069807872 -0.20238139 -0.034789011 0 0 0 255
-0.068020962 -0.20179172 -0.037707355 0 0 0 255
-0.066182435 -0.20118321 -0.040516559 0 0 0 255
-0.063927099 -0.20038897 -0.042601291 0 0 0 255
-0.061562259 -0.1995389 -0.044474717 0 0 0 255
-0.059883833 -0.19900678 -0.047605757 0 0 0 255
-0.058329865 -0.19852845 -0.050939236 0 0 0 255
-0.056772929 -0.19804056 -0.054276209 0 0 0 255
-0.054462548 -0.19721667 -0.056255795 0 0 0 255
-0.053828187 -0.19715182 -0.061264999 0 0 0 255
-0.052675046 -0.19684599 -0.065333068 0 0 0 255
0.070689313 -0.14540073 0.047869153 0 0 0 255
0.074915834 -0.14371136 0.04947111 0 0 0 255
0.079888351 -0.14169084 0.052435458 0 0 0 255
0.084172398 -0.13998371 0.05414357 0 0 0 255
0.087425411 -0.13873908 0.053965509 0 0 0 255
0.091306135 -0.1372128 0.054942023 0 0 0 255
0.094955735 -0.13578661 0.055499054 0 0 0 255
0.097859085 -0.13469584 0.05469469 0 0 0 255
0.10127185 -0.13337395 0.054838456 0 0 0 255
0.10400917 -0.13235956 0.053716626 0 0 0 255
0.10679455 -0.13131921 0.052704442 0 0 0 255
0.10935841 -0.13038607 0.051270142 0 0 0 255
0.11196875 -0.12942004 0.049944997 0 0 0 255
0.11453307 -0.12848672 0.048511557 0 0 0 255
0.11783428 -0.12721394 0.048442647 0 0 0 255
0.11999113 -0.12645553 0.046276383 0 0 0 255
0.12192156 -0.12580615 0.043691009 0 0 0 255
0.12425543 -0.1249748 0.041838072 0 0 0 255
0.12658943 -0.12414128 0.039984643 0 0 0 255
0.12863827 -0.1234403 0.037606571 0 0 0 255
0.13039914 -0.12286007 0.034704223 0 0 0 255
0.13204797 -0.12233126 0.031591058 0 0 0 255
0.13415885 -0.12159809 0.029315004 0 0 0 255
0.13529897 -0.12129594 0.025253568 0 0 0 255
0.13683671 -0.12081608 0.021928597 0 0 0 255
0.13838336 -0.12034043 0.018599615 0 0 0 255
0.13986535 -0.11988831 0.015169479 0 0 0 255
0.14078543 -0.11969497 0.010685418 0 0 0 255
0.14256047 -0.11911066 0.0077745654 0 0 0 255
0.14381935 -0.11875784 0.0039204434 0 0 0 255
0.14536598 -0.11828218 0.00059146434 0 0 0 255
0.146346 -0.11805745 -0.0037904382 0 0 0 255
0.14857531 -0.11727269 -0.0058591813 0 0 0 255
0.14945039 -0.11709359 -0.010456894 0 0 0 255
0.15009469 -0.11701553 -0.015474103 0 0 0 255
0.1514793 -0.11660949 -0.019124048 0 0 0 255
0.23908821 -0.08563441 -0.099127375 0 0 0 255
0.24354008 -0.083839588 -0.096964143 0 0 0 255
0.24666977 -0.082655832 -0.097345017 0 0 0 255
0.24962175 -0.081536718 -0.098039351 0 0 0 255
0.25313246 -0.080171704 -0.09767665 0 0 0 255
0.25609121 -0.079052277 -0.098375849 0 0 0 255
0.26141709 -0.07686805 -0.094507396 0 0 0 255
0.26602527 -0.075006761 -0.092018314 0 0 0 255
0.27008227 -0.073398218 -0.090590179 0 0 0 255
0.27325076 -0.072183304 -0.090857394 0 0 0 255
0.27708143 -0.070667781 -0.08985275 0 0 0 255
0.27964526 -0.069734648 -0.091287047 0 0 0 255
0.28243196 -0.068693794 -0.092298858 0 0 0 255
0.28675967 -0.066960126 -0.090337947 0 0 0 255
0.28959268 -0.065894984 -0.091239974 0 0 0 255
0.29259551 -0.064757392 -0.091824651 0 0 0 255
0.29615051 -0.063376263 -0.091348268 0 0 0 255
0.2992079 -0.062210284 -0.091827318 0 0 0 255
0.30198789 -0.06118039 -0.092834495 0 0 0 255
0.30525985 -0.059910774 -0.092886895 0 0 0 255
0.30776638 -0.058998503 -0.094426855 0 0 0 255
0.31033021 -0.05806537 -0.095861167 0 0 0 255
0.31223765 -0.057423301 -0.098572336 0 0 0 255
0.31436175 -0.056687459 -0.10085726 0 0 0 255
0.31648529 -0.05594863 -0.10314129 0 0 0 255
0.31855714 -0.055229679 -0.10553539 0 0 0 255
0.32008713 -0.054760098 -0.10899501 0 0 0 255
0.32253718 -0.053868383 -0.11064113 0 0 0 255
0.32292241 -0.053920768 -0.11633727 0 0 0 255
0.32374001 -0.053773262 -0.12117928 0 0 0 255
0.34369001 -0.05242908 -0.30451301 0 0 0 255
0.34655955 -0.051358081 -0.30543602 0 0 0 255
0.34995836 -0.050042301 -0.30528462 0 0 0 255
0.35372806 -0.048556432 -0.30438077 0 0 0 255
0.35712686 -0.047240645 -0.30422935 0 0 0 255
0.36058345 -0.045902774 -0.30397278 0 0 0 255
0.36306685 -0.044998914 -0.30563939 0 0 0 255
0.36614573 -0.043833673 -0.30612996 0 0 0 255
0.36879677 -0.042852849 -0.3074801 0 0 0 255
0.37192449 -0.041661263 -0.30786148 0 0 0 255
0.37568721 -0.04017897 -0.3069531 0 0 0 255
0.37897462 -0.038911194 -0.30701351 0 0 0 255
0.38183683 -0.037842855 -0.30793205 0 0 0 255
0.38416058 -0.0370152 -0.30991963 0 0 0 255
0.38707125 -0.035921782 -0.31072849 0 0 0 255
0.38988316 -0.034871757 -0.31175581 0 0 0 255
0.39263347 -0.033852667 -0.31288564 0 0 0 255
0.39533383 -0.032851771 -0.31412563 0 0 0 255
0.39765757 -0.0320241 -0.3161132 0 0 0 255
0.40014988 -0.031124473 -0.3177838 0 0 0 255
0.4024708 -0.030290395 -0.31977227 0 0 0 255
0.40448841 -0.029608205 -0.32241029 0 0 0 255
0.40623096 -0.029043168 -0.32558143 0 0 0 255
0.40792692 -0.028505698 -0.32886279 0 0 0 255
0.40825039 -0.028589129 -0.33494186 0 0 0 255
-0.1138466 -0.22230029 -0.023738503 0 0 0 255
-0.10919888 -0.22042568 -0.021555245 0 0 0 255
-0.10553645 -0.21900545 -0.021144867 0 0 0 255
-0.10211898 -0.21769138 -0.021144114 0 0 0 255
-0.098165005 -0.21613845 -0.020212598 0 0 0 255
-0.094748989 -0.21481535 -0.020212851 0 0 0 255
-0.092262857 -0.21391901 -0.021879464 0 0 0 255
-0.08907456 -0.21270645 -0.022297844 0 0 0 255
-0.086067036 -0.21157673 -0.023025546 0 0 0 255
-0.083407447 -0.21060023 -0.02437833 0 0 0 255
-0.080694079 -0.20959458 -0.025626317 0 0 0 255
-0.078034624 -0.20861919 -0.026979961 0 0 0 255
-0.075321257 -0.20761356 -0.028227955 0 0 0 255
-0.07347621 -0.2070027 -0.03104116 0 0 0 255
-0.071454167 -0.2063189 -0.03354102 0 0 0 255
-0.068331778 -0.20513034 -0.034060914 0 0 0 255
-0.06613946 -0.20435902 -0.036247805 0 0 0 255
-0.064237237 -0.2037295 -0.03895485 0 0 0 255
-0.062338293 -0.20308837 -0.041662388 0 0 0 255
-0.0605499 -0.20250024 -0.044581246 0 0 0 255
-0.058816765 -0.20193863 -0.047605757 0 0 0 255
-0.056448709 -0.20109485 -0.049479678 0 0 0 255
-0.05570244 -0.2009818 -0.054276209 0 0 0 255
-0.054667372 -0.20072745 -0.058552954 0 0 0 255
-0.05339146 -0.20037693 -0.062414717 0 0 0 255
-0.051604554 -0.19978724 -0.065333068 0 0 0 255
0.075223088 -0.14693891 0.048109215 0 0 0 255
0.078992128 -0.1454639 0.048873555 0 0 0 255
0.083275959 -0.14375472 0.050582532 0 0 0 255
0.087390438 -0.14211673 0.051973674 0 0 0 255
0.090922318 -0.14074402 0.05232339 0 0 0 255
0.094513781 -0.13933896 0.052775264 0 0 0 255
0.097078443 -0.13840553 0.051340461 0 0 0 255
0.10032494 -0.1371633 0.0511664 0 0 0 255
0.10379867 -0.13581173 0.051410958 0 0 0 255
0.10681371 -0.13466971 0.050818771 0 0 0 255
0.10972025 -0.13358523 0.050013904 0 0 0 255
0.11256754 -0.13251486 0.049104251 0 0 0 255
0.11518028 -0.13155544 0.047779106 0 0 0 255
0.11763222 -0.13067153 0.046133481 0 0 0 255
0.12007573 -0.1297822 0.044491373 0 0 0 255
0.12246692 -0.12893 0.042744093 0 0 0 255
0.12485585 -0.12806904 0.040996328 0 0 0 255
0.12695859 -0.12733781 0.038723912 0 0 0 255
0.12895012 -0.12665765 0.036240183 0 0 0 255
0.13054436 -0.12615721 0.033021361 0 0 0 255
0.13276599 -0.12537418 0.03095712 0 0 0 255
0.1340187 -0.12502466 0.027106997 0 0 0 255
0.13601001 -0.12434246 0.024624132 0 0 0 255
0.13777888 -0.12376148 0.02171728 0 0 0 255
0.13903627 -0.12340706 0.017863654 0 0 0 255
0.14080706 -0.12283386 0.014957301 0 0 0 255
0.14246561 -0.12230898 0.011839636 0 0 0 255
0.14440042 -0.12164736 0.0092506185 0 0 0 255
0.14566579 -0.12129217 0.0053924918 0 0 0 255
0.14710122 -0.12086764 0.0018522032 0 0 0 255
0.14791441 -0.12071958 -0.0028466731 0 0 0 255
0.14945947 -0.12023707 -0.0061761476 0 0 0 255
0.15016145 -0.12013907 -0.011087697 0 0 0 255
0.15115151 -0.1199192 -0.015474103 0 0 0 255
0.15190819 -0.11979172 -0.02027913 0 0 0 255
0.2390988 -0.08901462 -0.10114457 0 0 0 255
0.24471086 -0.086699657 -0.09675283 0 0 0 255
0.24755734 -0.085629582 -0.097661987 0 0 0 255
0.25090203 -0.084340952 -0.097616732 0 0 0 255
0.25490823 -0.082750902 -0.096298248 0 0 0 255
0.25764281 -0.081729032 -0.097420081 0 0 0 255
0.26082122 -0.080521137 -0.097691305 0 0 0 255
0.26575476 -0.078506328 -0.094563797 0 0 0 255
0.2706975 -0.076496661 -0.091440298 0 0 0 255
0.27474529 -0.074882969 -0.090008155 0 0 0 255
0.27791411 -0.073668979 -0.090275377 0 0 0 255
0.28114039 -0.072431959 -0.090437427 0 0 0 255
0.28447604 -0.071141303 -0.090387672 0 0 0 255
0.28764728 -0.069933891 -0.090654925 0 0 0 255
0.29015118 -0.069011919 -0.092195377 0 0 0 255
0.29397726 -0.067506582 -0.091186218 0 0 0 255
0.29682124 -0.066444919 -0.092092365 0 0 0 255
0.29998356 -0.065233283 -0.092355594 0 0 0 255
0.30276817 -0.064193211 -0.093367279 0 0 0 255
0.30554622 -0.063155502 -0.094374947 0 0 0 255
0.30778205 -0.062368371 -0.096447691 0 0 0 255
0.31028855 -0.061456099 -0.097987652 0 0 0 255
0.31290781 -0.060494281 -0.099316806 0 0 0 255
0.31475696 -0.059874475 -0.102134 0 0 0 255
0.31737471 -0.058911078 -0.10346263 0 0 0 255
0.31895554 -0.05842299 -0.1068126 0 0 0 255
0.32146287 -0.057510413 -0.10835309 0 0 0 255
0.32304701 -0.057013676 -0.11170655 0 0 0 255
0.32402661 -0.056796551 -0.1162276 0 0 0 255
0.32376149 -0.057138875 -0.12320413 0 0 0 255
0.34730774 -0.054443263 -0.30607796 0 0 0 255
0.35118812 -0.052907482 -0.30496228 0 0 0 255
0.35474777 -0.05151616 -0.30449042 0 0 0 255
0.35936904 -0.049641609 -0.3018702 0 0 0 255
0.36159664 -0.048864886 -0.30407846 0 0 0 255
0.36552519 -0.047303125 -0.30285311 0 0 0 255
0.36870217 -0.046086162 -0.30312535 0 0 0 255
0.37194133 -0.044846579 -0.30329493 0 0 0 255
0.37458354 -0.043866828 -0.30464005 0 0 0 255
0.3779763 -0.042552203 -0.30448514 0 0 0 255
0.38020426 -0.041777492 -0.30669206 0 0 0 255
0.3834281 -0.0405339 -0.3068541 0 0 0 255
0.38639575 -0.039418697 -0.30755731 0 0 0 255
0.38909528 -0.038418084 -0.30879679 0 0 0 255
0.39116135 -0.037710831 -0.31132519 0 0 0 255
0.39417398 -0.036561146 -0.31191874 0 0 0 255
0.39671659 -0.035644248 -0.31347919 0 0 0 255
0.39919999 -0.034740388 -0.31514582 0 0 0 255
0.40163532 -0.033862546 -0.31692207 0 0 0 255
0.4040229 -0.033011645 -0.31880799 0 0 0 255
0.40560389 -0.032514989 -0.32230064 0 0 0 255
0.40814379 -0.031590581 -0.32386109 0 0 0 255
0.40995097 -0.031002015 -0.32693109 0 0 0 255
-0.11096097 -0.22442448 -0.020514071 0 0 0 255
-0.10748078 -0.22307907 -0.020412654 0 0 0 255
-0.10359111 -0.22154951 -0.019583665 0 0 0 255
-0.10052156 -0.22038765 -0.02020935 0 0 0 255
-0.096632227 -0.21885823 -0.01937899 0 0 0 255
-0.094264649 -0.21801463 -0.021253787 0 0 0 255
-0.090320259 -0.21645558 -0.020318262 0 0 0 255
-0.086606562 -0.21501668 -0.019797359 0 0 0 255
-0.084297106 -0.21419422 -0.021777309 0 0 0 255
-0.081701338 -0.21323991 -0.023233112 0 0 0 255
-0.078812584 -0.21216193 -0.024166767 0 0 0 255
-0.07603389 -0.21113461 -0.025313601 0 0 0 255
-0.073202118 -0.21007738 -0.026354279 0 0 0 255
-0.071126632 -0.20936455 -0.028747991 0 0 0 255
-0.068996355 -0.20862539 -0.031036902 0 0 0 255
-0.066798329 -0.20785201 -0.033227295 0 0 0 255
-0.064665183 -0.2071182 -0.035516717 0 0 0 255
-0.062759057 -0.20647766 -0.038226895 0 0 0 255
-0.060859434 -0.20583841 -0.040934432 0 0 0 255
-0.059709717 -0.20554236 -0.044999868 0 0 0 255
-0.058094658 -0.20503329 -0.048231687 0 0 0 255
-0.056360837 -0.20447353 -0.051256198 0 0 0 255
-0.055211473 -0.20417653 -0.05532163 0 0 0 255
-0.053945616 -0.20382115 -0.059178893 0 0 0 255
-0.052734803 -0.20349434 -0.063142672 0 0 0 255
-0.053137999 -0.20389543 -0.070032686 0 0 0 255
0.07924445 -0.14871889 0.047406003 0 0 0 255
0.083526239 -0.14700407 0.049114984 0 0 0 255
0.08826831 -0.14508553 0.051659841 0 0 0 255
0.091975711 -0.14363828 0.05232339 0 0 0 255
0.0952833 -0.14236528 0.052250981 0 0 0 255
0.098590545 -0.14109135 0.052178573 0 0 0 255
0.1017248 -0.13989741 0.051793203 0 0 0 255
0.10513744 -0.1385766 0.051936105 0 0 0 255
0.10769855 -0.13763595 0.050501801 0 0 0 255
0.11031862 -0.13667384 0.049172148 0 0 0 255
0.11321475 -0.13558358 0.048371784 0 0 0 255
0.11601055 -0.13455006 0.047356471 0 0 0 255
0.11827943 -0.13374025 0.045401029 0 0 0 255
0.1210718 -0.13269734 0.044385716 0 0 0 255
0.12351792 -0.13181768 0.042744093 0 0 0 255
0.12550876 -0.13113567 0.040260371 0 0 0 255
0.12795228 -0.13024634 0.038618259 0 0 0 255
0.13000113 -0.12954533 0.036240183 0 0 0 255
0.13182628 -0.12894171 0.033440351 0 0 0 255
0.13415968 -0.12811054 0.031586558 0 0 0 255
0.13575393 -0.1276101 0.028367734 0 0 0 255
0.13780063 -0.12689924 0.025990032 0 0 0 255
0.13968265 -0.12627493 0.023294985 0 0 0 255
0.14082962 -0.12597135 0.01922955 0 0 0 255
0.14287893 -0.12527017 0.016852342 0 0 0 255
0.14442286 -0.12478701 0.013523363 0 0 0 255
0.1458506 -0.12436315 0.0099862069 0 0 0 255
0.14666529 -0.12421668 0.0052868389 0 0 0 255
0.14786877 -0.12389253 0.0013275594 0 0 0 255
0.14896813 -0.12361479 -0.0028466731 0 0 0 255
0.15029167 -0.12323843 -0.0065996386 0 0 0 255
0.150933 -0.12317102 -0.011611979 0 0 0 255
0.15254107 -0.12266555 -0.014839295 0 0 0 255
0.15155737 -0.12333006 -0.022914262 0 0 0 255
0.23932731 -0.092296377 -0.10273477 0 0 0 255
0.24383616 -0.090480827 -0.10046452 0 0 0 255
0.24922085 -0.088257104 -0.096494898 0 0 0 255
0.2523416 -0.087068059 -0.096873149 0 0 0 255
0.25601962 -0.0856262 -0.096192598 0 0 0 255
0.25941274 -0.084312491 -0.096037686 0 0 0 255
0.26275662 -0.083024144 -0.095991947 0 0 0 255
0.26681086 -0.081408106 -0.094563797 0 0 0 255
0.27108896 -0.079693563 -0.092713036 0 0 0 255
0.27469558 -0.078274481 -0.092130132 0 0 0 255
0.27880833 -0.076638207 -0.09059684 0 0 0 255
0.28219447 -0.075328119 -0.090437427 0 0 0 255
0.28541991 -0.074091375 -0.090598986 0 0 0 255
0.28870067 -0.072828159 -0.090654925 0 0 0 255
0.29225257 -0.071438566 -0.090178534 0 0 0 255
0.29503065 -0.070400864 -0.091186218 0 0 0 255
0.29792956 -0.069311723 -0.091986701 0 0 0 255
0.30103695 -0.068127565 -0.092355594 0 0 0 255
0.30403769 -0.066990726 -0.092940152 0 0 0 255
0.30676967 -0.065980434 -0.094057113 0 0 0 255
0.30954853 -0.064942442 -0.095065296 0 0 0 255
0.31178159 -0.064147793 -0.097138032 0 0 0 255
0.31417575 -0.063284911 -0.09889017 0 0 0 255
0.31575578 -0.062797129 -0.10223965 0 0 0 255
0.31848624 -0.061785258 -0.10335611 0 0 0 255
0.32006386 -0.061289825 -0.10670695 0 0 0 255
0.32251698 -0.060406558 -0.10835309 0 0 0 255
0.32311997 -0.060362689 -0.11362173 0 0 0 255
0.32284752 -0.060706615 -0.1205951 0 0 0 255
0.32231313 -0.061182037 -0.12810478 0 0 0 255
0.35204202 -0.055945665 -0.30539027 0 0 0 255
0.35506162 -0.054793447 -0.30598697 0 0 0 255
0.35830164 -0.053553551 -0.30615705 0 0 0 255
0.36202052 -0.052086174 -0.30536282 0 0 0 255
0.36467588 -0.05111973 -0.30671248 0 0 0 255
0.36865249 -0.049531952 -0.30537748 0 0 0 255
0.37247866 -0.048024446 -0.30436885 0 0 0 255
0.37603143 -0.046635598 -0.3038916 0 0 0 255
0.37914979 -0.045440003 -0.30426985 0 0 0 255
0.38243634 -0.044172525 -0.30432975 0 0 0 255
0.38428426 -0.043560609 -0.30728561 0 0 0 255
0.38661811 -0.042737812 -0.30927768 0 0 0 255
0.38920608 -0.041787371 -0.31072849 0 0 0 255
0.39270136 -0.040420517 -0.31035775 0 0 0 255
0.39556408 -0.039352015 -0.31127542 0 0 0 255
0.39841983 -0.038286045 -0.31218994 0 0 0 255
0.400639 -0.037504971 -0.31439334 0 0 0 255
0.40286341 -0.03672196 -0.3166011 0 0 0 255
0.40540409 -0.035797253 -0.31816205 0 0 0 255
0.40783826 -0.03491877 -0.31993783 0 0 0 255
0.40900466 -0.034626216 -0.32429221 0 0 0 255
0.41106716 -0.033910662 -0.32682145 0 0 0 255
-0.10948327 -0.22717282 -0.019786969 0 0 0 255
-0.10605732 -0.22585674 -0.019791216 0 0 0 255
-0.10187645 -0.22419356 -0.018441081 0 0 0 255
-0.098569736 -0.22292939 -0.018652141 0 0 0 255
-0.095327169 -0.22168751 -0.018964857 0 0 0 255
-0.091908887 -0.22037315 -0.018964618 0 0 0 255
-0.088316798 -0.21897852 -0.018651895 0 0 0 255
-0.08577691 -0.21805412 -0.020212349 0 0 0 255
-0.081885956 -0.21652409 -0.019382991 0 0 0 255
-0.079757169 -0.21578336 -0.021671403 0 0 0 255
-0.077507526 -0.21499118 -0.023752648 0 0 0 255
-0.074729651 -0.21396419 -0.024898976 0 0 0 255
-0.071903914 -0.21290913 -0.025934793 0 0 0 255
-0.070581213 -0.21253307 -0.029687256 0 0 0 255
-0.067573562 -0.21140224 -0.030414097 0 0 0 255
-0.066084705 -0.21094762 -0.033849601 0 0 0 255
-0.06417729 -0.21030556 -0.036560774 0 0 0 255
-0.061871618 -0.20949298 -0.038536724 0 0 0 255
-0.060083214 -0.20890488 -0.041455574 0 0 0 255
-0.058237366 -0.20829476 -0.044267911 0 0 0 255
-0.056969583 -0.20794617 -0.048126031 0 0 0 255
-0.055988748 -0.20772111 -0.052508436 0 0 0 255
-0.054262944 -0.20716217 -0.055528443 0 0 0 255
-0.053224787 -0.20691629 -0.059805192 0 0 0 255
-0.052067421 -0.20661956 -0.06387376 0 0 0 255
0.083090566 -0.15057118 0.046390694 0 0 0 255
0.088006109 -0.14857247 0.049249385 0 0 0 255
0.091883287 -0.14703791 0.050225038 0 0 0 255
0.094844073 -0.14592516 0.049527194 0 0 0 255
0.099183172 -0.14418842 0.051340461 0 0 0 255
0.10242694 -0.14293866 0.0511664 0 0 0 255
0.10579117 -0.14164293 0.051199645 0 0 0 255
0.10892542 -0.14044899 0.050814271 0 0 0 255
0.11159877 -0.13946004 0.049591281 0 0 0 255
0.11449701 -0.13836901 0.048790779 0 0 0 255
0.11677502 -0.13756652 0.046831824 0 0 0 255
0.11956087 -0.13652596 0.045820512 0 0 0 255
0.12178238 -0.13574405 0.043755408 0 0 0 255
0.12445667 -0.13475367 0.042532787 0 0 0 255
0.12701482 -0.13382262 0.041101985 0 0 0 255
0.12911791 -0.13309231 0.038829569 0 0 0 255
0.13179059 -0.13210148 0.037606571 0 0 0 255
0.13344263 -0.13157894 0.034492914 0 0 0 255
0.13492462 -0.13112684 0.031062772 0 0 0 255
0.13714741 -0.13034442 0.028998038 0 0 0 255
0.13863045 -0.12989406 0.025566537 0 0 0 255
0.14056683 -0.12923929 0.022978015 0 0 0 255
0.14216188 -0.12873858 0.019758698 0 0 0 255
0.14410499 -0.12808351 0.017165311 0 0 0 255
0.14536387 -0.1277307 0.013311185 0 0 0 255
0.14713466 -0.12715749 0.010404833 0 0 0 255
0.14737597 -0.12726226 0.0046574026 0 0 0 255
0.14920834 -0.1266571 0.0018522032 0 0 0 255
0.15069766 -0.12620232 -0.0015824325 0 0 0 255
0.15145695 -0.12608345 -0.0063883252 0 0 0 255
0.15176326 -0.12616563 -0.012034606 0 0 0 255
0.15353988 -0.12558819 -0.014944956 0 0 0 255
0.15452608 -0.12536016 -0.019330859 0 0 0 255
0.23977961 -0.095480725 -0.103901 0 0 0 255
0.24610382 -0.092827775 -0.098129854 0 0 0 255
0.24972726 -0.091413215 -0.09755633 0 0 0 255
0.25390041 -0.089744322 -0.095921375 0 0 0 255
0.25817847 -0.088029787 -0.094070606 0 0 0 255
0.2615203 -0.086735807 -0.094024852 0 0 0 255
0.26464075 -0.085546903 -0.09440174 0 0 0 255
0.26836076 -0.084080167 -0.093608022 0 0 0 255
0.27176198 -0.082770966 -0.093456626 0 0 0 255
0.27580732 -0.081150703 -0.092024475 0 0 0 255
0.27942276 -0.079736941 -0.091446459 0 0 0 255
0.28280854 -0.078425899 -0.091287047 0 0 0 255
0.28664014 -0.076908976 -0.090282023 0 0 0 255
0.28931555 -0.075925648 -0.091505028 0 0 0 255
0.29281324 -0.074565373 -0.09113431 0 0 0 255
0.29619676 -0.073246658 -0.090974048 0 0 0 255
0.29892838 -0.072234377 -0.092092365 0 0 0 255
0.30203304 -0.071042679 -0.092461251 0 0 0 255
0.30497986 -0.069936119 -0.093151465 0 0 0 255
0.30798268 -0.068798512 -0.093736157 0 0 0 255
0.31032765 -0.067954607 -0.095597565 0 0 0 255
0.31310606 -0.066917844 -0.096605256 0 0 0 255
0.31522915 -0.066179179 -0.09889017 0 0 0 255
0.31784806 -0.065217495 -0.10021795 0 0 0 255
0.3192111 -0.064825691 -0.10399541 0 0 0 255
0.32079181 -0.064339772 -0.1073449 0 0 0 255
0.32199216 -0.064015694 -0.11144334 0 0 0 255
0.32286021 -0.063848749 -0.11617571 0 0 0 255
0.32292619 -0.064053528 -0.12251379 0 0 0 255
0.35337529 -0.058756173 -0.30485314 0 0 0 255
0.35634908 -0.057637647 -0.30556035 0 0 0 255
0.35888624 -0.056705698 -0.3071208 0 0 0 255
0.36329871 -0.054925233 -0.30493221 0 0 0 255
0.36637759 -0.053759962 -0.30542272 0 0 0 255
0.36934933 -0.052635804 -0.30612996 0 0 0 255
0.37253132 -0.051414892 -0.30640566 0 0 0 255
0.37485507 -0.050587252 -0.30839324 0 0 0 255
0.37824818 -0.049273536 -0.30823833 0 0 0 255
0.38137591 -0.048081949 -0.30861974 0 0 0 255
0.38471091 -0.046789408 -0.30856997 0 0 0 255
0.38789308 -0.045570582 -0.30884656 0 0 0 255
0.39059275 -0.044568837 -0.31008518 0 0 0 255
0.39371452 -0.043382645 -0.31046343 0 0 0 255
0.39641452 -0.042381853 -0.31170207 0 0 0 255
0.39864215 -0.04160516 -0.31391031 0 0 0 255
0.401761 -0.040409371 -0.31428769 0 0 0 255
0.40419596 -0.039530575 -0.31606397 0 0 0 255
0.40668195 -0.038636416 -0.31773007 0 0 0 255
0.4087441 -0.037919939 -0.3202593 0 0 0 255
0.41049007 -0.037364304 -0.32343045 0 0 0 255
0.41208035 -0.036872774 -0.3269271 0 0 0 255
-0.10888038 -0.2303194 -0.02061972 0 0 0 255
-0.10516337 -0.22887076 -0.020103693 0 0 0 255
-0.099929959 -0.22673829 -0.016880371 0 0 0 255
-0.095986381 -0.22517955 -0.015944347 0 0 0 255
-0.093089968 -0.22409876 -0.016883872 0 0 0 255
-0.090138957 -0.22299068 -0.017716371 0 0 0 255
-0.086659119 -0.22164434 -0.017614968 0 0 0 255
-0.083715081 -0.22053878 -0.018444337 0 0 0 255
-0.080645539 -0.21937689 -0.019070022 0 0 0 255
-0.078224063 -0.21850409 -0.020837788 0 0 0 255
-0.075737588 -0.21760869 -0.022504408 0 0 0 255
-0.073434055 -0.21678625 -0.024479985 0 0 0 255
-0.071359172 -0.21607578 -0.026874062 0 0 0 255
-0.068926945 -0.21520971 -0.028646328 0 0 0 255
-0.066854671 -0.21448955 -0.031040903 0 0 0 255
-0.064486615 -0.21364576 -0.032914832 0 0 0 255
-0.063171446 -0.21327032 -0.036661938 0 0 0 255
-0.060915764 -0.21247596 -0.038748037 0 0 0 255
-0.058950689 -0.21181394 -0.041353554 0 0 0 255
-0.057344235 -0.21130802 -0.044581246 0 0 0 255
-0.055610415 -0.21074829 -0.047605757 0 0 0 255
-0.054168347 -0.21031919 -0.051150542 0 0 0 255
-0.053594742 -0.21028709 -0.056260034 0 0 0 255
-0.052092869 -0.20982774 -0.05970354 0 0 0 255
-0.051576447 -0.20981428 -0.064919189 0 0 0 255
0.087678783 -0.15208313 0.046736907 0 0 0 255
0.091508709 -0.15057534 0.047603771 0 0 0 255
0.095213234 -0.14912169 0.048266456 0 0 0 255
0.099035829 -0.14761657 0.049137816 0 0 0 255
0.10199389 -0.14649525 0.048438609 0 0 0 255
0.10604226 -0.14489198 0.049731597 0 0 0 255
0.10894879 -0.14380857 0.048928097 0 0 0 255
0.11196335 -0.1426667 0.048335046 0 0 0 255
0.11486455 -0.1415661 0.047531042 0 0 0 255
0.11811151 -0.14032261 0.047356471 0 0 0 255
0.12050032 -0.13946384 0.045609206 0 0 0 255
0.12317619 -0.13847928 0.044385716 0 0 0 255
0.12590379 -0.13746101 0.043268375 0 0 0 255
0.12818274 -0.1366571 0.041309796 0 0 0 255
0.13022919 -0.13594952 0.03893172 0 0 0 255
0.13262051 -0.13509516 0.037183952 0 0 0 255
0.13438138 -0.13451491 0.0342816 0 0 0 255
0.13597561 -0.1340145 0.031062772 0 0 0 255
0.13831031 -0.13318287 0.029209351 0 0 0 255
0.13945317 -0.13288823 0.025147915 0 0 0 255
0.14122123 -0.13230751 0.022241559 0 0 0 255
0.14310062 -0.13167456 0.019547384 0 0 0 255
0.14492874 -0.13108049 0.016746689 0 0 0 255
0.14698067 -0.13036776 0.014364615 0 0 0 255
0.14807376 -0.13009442 0.010193519 0 0 0 255
0.14905047 -0.12987836 0.0058151148 0 0 0 255
0.15053979 -0.12942356 0.0023804866 0 0 0 255
0.1513564 -0.12928489 -0.0023183934 0 0 0 255
0.15262307 -0.12892926 -0.0061761476 0 0 0 255
0.15321347 -0.12888142 -0.01129901 0 0 0 255
0.15459329 -0.12848248 -0.014944956 0 0 0 255
0.15557981 -0.12825537 -0.019330859 0 0 0 255
0.24276724 -0.097504988 -0.1001893 0 0 0 255
0.2473841 -0.095632024 -0.097707234 0 0 0 255
0.25171724 -0.093887866 -0.095751308 0 0 0 255
0.25517336 -0.092551239 -0.095494248 0 0 0 255
0.2589061 -0.091078803 -0.094708547 0 0 0 255
0.26279303 -0.089540668 -0.093596861 0 0 0 255
0.2665188 -0.08807078 -0.092808031 0 0 0 255
0.26980686 -0.086804904 -0.092868432 0 0 0 255
0.27259141 -0.085764818 -0.093880117 0 0 0 255
0.27680612 -0.084073357 -0.092130132 0 0 0 255
0.28008619 -0.082808249 -0.092186049 0 0 0 255
0.28403115 -0.081250057 -0.090970084 0 0 0 255
0.28714347 -0.080056645 -0.091343455 0 0 0 255
0.29031229 -0.078842655 -0.091610685 0 0 0 255
0.29380929 -0.077480488 -0.091239974 0 0 0 255
0.29659519 -0.076439977 -0.092251271 0 0 0 255
0.29975832 -0.075228065 -0.092514992 0 0 0 255
0.30264783 -0.074142352 -0.09331087 0 0 0 255
0.30532095 -0.073150277 -0.094534352 0 0 0 255
0.30837792 -0.071985535 -0.095012888 0 0 0 255
0.3104471 -0.071277119 -0.097403452 0 0 0 255
0.31317836 -0.070264973 -0.098520428 0 0 0 255
0.31568488 -0.069352694 -0.10006039 0 0 0 255
0.31671941 -0.069108114 -0.10447579 0 0 0 255
0.31851366 -0.06851574 -0.10739864 0 0 0 255
0.32107753 -0.067582607 -0.10883294 0 0 0 255
0.32156897 -0.067587845 -0.11431428 0 0 0 255
0.32293886 -0.067195676 -0.11809437 0 0 0 255
0.32375884 -0.067054726 -0.12293641 0 0 0 255
0.35784459 -0.060381636 -0.30470175 0 0 0 255
0.36086422 -0.059229419 -0.30529842 0 0 0 255
0.36452803 -0.057790592 -0.30461073 0 0 0 255
0.36786956 -0.056495667 -0.30456498 0 0 0 255
0.37164003 -0.055009499 -0.30366161 0 0 0 255
0.37417993 -0.054085076 -0.30522209 0 0 0 255
0.37736261 -0.052866057 -0.3054978 0 0 0 255
0.38081029 -0.051523969 -0.30523723 0 0 0 255
0.3831329 -0.0506946 -0.3072257 0 0 0 255
0.38673565 -0.049287573 -0.3066383 0 0 0 255
0.38917097 -0.048409745 -0.30841458 0 0 0 255
0.39197671 -0.047361955 -0.30943924 0 0 0 255
0.39462849 -0.046388313 -0.31078839 0 0 0 255
0.39711186 -0.045484453 -0.312455 0 0 0 255
0.4000704 -0.044362977 -0.31315336 0 0 0 255
0.40309298 -0.043220326 -0.31375092 0 0 0 255
0.40605149 -0.04209885 -0.31444925 0 0 0 255
0.40869707 -0.041128516 -0.31579438 0 0 0 255
0.41076201 -0.040419549 -0.31832364 0 0 0 255
0.41303769 -0.039617866 -0.32042086 0 0 0 255
0.4134123 -0.039683744 -0.32639033 0 0 0 255
0.41521299 -0.039097533 -0.32945633 0 0 0 255
-0.10698849 -0.23289251 -0.019164667 0 0 0 255
-0.10344802 -0.23151666 -0.018961102 0 0 0 255
-0.099384405 -0.22990571 -0.017818779 0 0 0 255
-0.094389789 -0.2278761 -0.015009083 0 0 0 255
-0.091730334 -0.22690071 -0.016362719 0 0 0 255
-0.088833906 -0.22581995 -0.017302245 0 0 0 255
-0.085299946 -0.22444646 -0.017094687 0 0 0 255
-0.082932577 -0.22360079 -0.018968605 0 0 0 255
-0.079750448 -0.22239155 -0.019382991 0 0 0 255
-0.077094391 -0.22140676 -0.020736638 0 0 0 255
-0.074320287 -0.22038968 -0.021878965 0 0 0 255
-0.072478667 -0.21976942 -0.02469217 0 0 0 255
-0.070172533 -0.21895666 -0.026667248 0 0 0 255
-0.06780529 -0.21811318 -0.028540678 0 0 0 255
-0.065786913 -0.21742329 -0.031040903 0 0 0 255
-0.063476518 -0.21659942 -0.033020489 0 0 0 255
-0.061866041 -0.21610053 -0.036247805 0 0 0 255
-0.059556127 -0.2152779 -0.038226895 0 0 0 255
-0.0582937 -0.21493231 -0.042081513 0 0 0 255
-0.056268811 -0.21424001 -0.044585746 0 0 0 255
-0.05541132 -0.21407586 -0.049170956 0 0 0 255
-0.054142736 -0.21372801 -0.053028218 0 0 0 255
-0.05304727 -0.21346126 -0.057199307 0 0 0 255
-0.051371105 -0.21292144 -0.060329475 0 0 0 255
0.091127619 -0.15411408 0.044985138 0 0 0 255
0.095235929 -0.1524794 0.046380281 0 0 0 255
0.098939985 -0.15102701 0.047043465 0 0 0 255
0.10287577 -0.14947109 0.048125137 0 0 0 255
0.10612605 -0.14821894 0.047947075 0 0 0 255
0.10897526 -0.14715534 0.047036555 0 0 0 255
0.11267294 -0.14570421 0.047704604 0 0 0 255
0.11517946 -0.14479193 0.046164643 0 0 0 255
0.11796486 -0.14375156 0.045152463 0 0 0 255
0.12075025 -0.14271224 0.044141654 0 0 0 255
0.1239964 -0.14146906 0.043967593 0 0 0 255
0.12666988 -0.14047793 0.042744093 0 0 0 255
0.12917072 -0.13956773 0.041207634 0 0 0 255
0.13042501 -0.13922508 0.037358016 0 0 0 255
0.13259205 -0.13847043 0.035188116 0 0 0 255
0.13514781 -0.13753279 0.033757322 0 0 0 255
0.1370836 -0.13688038 0.031168433 0 0 0 255
0.13902053 -0.13622862 0.028579047 0 0 0 255
0.14101335 -0.13554803 0.026095681 0 0 0 255
0.14232886 -0.13517246 0.022347216 0 0 0 255
0.14420894 -0.13454139 0.019653041 0 0 0 255
0.14609747 -0.13391469 0.016953997 0 0 0 255
0.1474686 -0.13351357 0.013311185 0 0 0 255
0.14912716 -0.13298869 0.010193519 0 0 0 255
0.15044382 -0.13261482 0.0064459182 0 0 0 255
0.15159351 -0.13231876 0.0023804866 0 0 0 255
0.15269549 -0.13204965 -0.0017946064 0 0 0 255
0.15345219 -0.13192216 -0.0065996386 0 0 0 255
0.1546092 -0.13162449 -0.010668207 0 0 0 255
0.155202 -0.13158326 -0.01579107 0 0 0 255
0.15573865 -0.13156459 -0.021018723 0 0 0 255
0.24426413 -0.10021229 -0.099338681 0 0 0 255
0.24910575 -0.098238371 -0.096434996 0 0 0 255
0.25250524 -0.096924484 -0.096283585 0 0 0 255
0.25545678 -0.095805548 -0.096978799 0 0 0 255
0.26001301 -0.093962088 -0.094598889 0 0 0 255
0.26428837 -0.092240028 -0.09274812 0 0 0 255
0.26740879 -0.091051146 -0.093125001 0 0 0 255
0.27014333 -0.090029247 -0.094246827 0 0 0 255
0.27414373 -0.088443466 -0.092924349 0 0 0 255
0.2777572 -0.087022938 -0.092345446 0 0 0 255
0.2808145 -0.085858069 -0.092825353 0 0 0 255
0.28514266 -0.084124222 -0.090863556 0 0 0 255
0.2884208 -0.082851298 -0.090919964 0 0 0 255
0.29158264 -0.081639871 -0.091184065 0 0 0 255
0.29459199 -0.08049991 -0.09177275 0 0 0 255
0.29824919 -0.079065606 -0.091080561 0 0 0 255
0.30114007 -0.07797727 -0.091876552 0 0 0 255
0.30403659 -0.076887935 -0.09267693 0 0 0 255
0.30648661 -0.075996235 -0.094323039 0 0 0 255
0.30926514 -0.074958362 -0.095329866 0 0 0 255
0.31144589 -0.074199773 -0.097509108 0 0 0 255
0.3135193 -0.073481306 -0.099902824 0 0 0 255
0.31597126 -0.072597422 -0.10154844 0 0 0 255
0.31771892 -0.072032645 -0.10458145 0 0 0 255
0.31989509 -0.071264021 -0.1067602 0 0 0 255
0.32158899 -0.070727319 -0.10989937 0 0 0 255
0.32131958 -0.071080767 -0.1168714 0 0 0 255
0.36321747 -0.061580345 -0.30272883 0 0 0 255
0.36517078 -0.06092155 -0.30546936 0 0 0 255
0.3690435 -0.05938223 -0.30435017 0 0 0 255
0.3723304 -0.058115706 -0.3044101 0 0 0 255
0.37642163 -0.056486189 -0.30286378 0 0 0 255
0.38002211 -0.0550704 -0.30227691 0 0 0 255
0.38304546 -0.053927466 -0.30287492 0 0 0 255
0.38595241 -0.052824765 -0.30368245 0 0 0 255
0.38902232 -0.051654235 -0.30417034 0 0 0 255
0.39135343 -0.050823882 -0.30616242 0 0 0 255
0.39442655 -0.049660698 -0.30664945 0 0 0 255
0.39670143 -0.048859358 -0.30874619 0 0 0 255
0.39934444 -0.047879323 -0.31009185 0 0 0 255
0.4020955 -0.046862081 -0.31122169 0 0 0 255
0.40416038 -0.046153113 -0.31375092 0 0 0 255
0.40744194 -0.044889599 -0.31380731 0 0 0 255
0.40992451 -0.043986037 -0.31547344 0 0 0 255
0.4119356 -0.043306231 -0.31810746 0 0 0 255
0.41431588 -0.042456925 -0.31999025 0 0 0 255
0.41527137 -0.042259231 -0.32477611 0 0 0 255
0.41754362 -0.041448176 -0.32687336 0 0 0 255
-0.10492817 -0.23537558 -0.017396145 0 0 0 255
-0.10045391 -0.23358114 -0.015526727 0 0 0 255
-0.096795022 -0.23215368 -0.01511585 0 0 0 255
-0.093668163 -0.23097095 -0.015635885 0 0 0 255
-0.090425275 -0.22972998 -0.015948601 0 0 0 255
-0.086772084 -0.22830462 -0.015534222 0 0 0 255
-0.084174871 -0.22735934 -0.01698903 0 0 0 255
-0.080521554 -0.22593284 -0.016573787 0 0 0 255
-0.077689767 -0.22487557 -0.017614473 0 0 0 255
-0.075908557 -0.22428794 -0.020529326 0 0 0 255
-0.073076785 -0.22323069 -0.021569997 0 0 0 255
-0.070708737 -0.22238691 -0.023443926 0 0 0 255
-0.068056598 -0.22141421 -0.024793077 0 0 0 255
-0.066272646 -0.22083409 -0.027707923 0 0 0 255
-0.063848093 -0.21996973 -0.029475696 0 0 0 255
-0.061886434 -0.21929833 -0.032081213 0 0 0 255
-0.060333882 -0.21882267 -0.035414558 0 0 0 255
-0.058542952 -0.21824001 -0.038332544 0 0 0 255
-0.057280868 -0.21789348 -0.042187169 0 0 0 255
-0.055666272 -0.21738565 -0.045418493 0 0 0 255
-0.054690376 -0.21716988 -0.049796395 0 0 0 255
-0.05359409 -0.21690282 -0.05396799 0 0 0 255
-0.052325502 -0.21655497 -0.057825252 0 0 0 255
-0.051864266 -0.21657227 -0.063146919 0 0 0 255
0.090583794 -0.15774077 0.042049535 0 0 0 255
0.093602605 -0.15658884 0.041453347 0 0 0 255
0.098392747 -0.1546443 0.044107862 0 0 0 255
0.10255578 -0.15297908 0.045608163 0 0 0 255
0.10632447 -0.15150419 0.046373866 0 0 0 255
0.10859384 -0.15069419 0.044419285 0 0 0 255
0.11201299 -0.14937104 0.04455819 0 0 0 255
0.11508992 -0.14819795 0.044067156 0 0 0 255
0.11810596 -0.14705765 0.043473605 0 0 0 255
0.12146129 -0.14575772 0.043510854 0 0 0 255
0.12408054 -0.14479589 0.042181708 0 0 0 255
0.12658706 -0.14388362 0.040641747 0 0 0 255
0.12937212 -0.1428434 0.039630935 0 0 0 255
0.13130987 -0.14219134 0.037041046 0 0 0 255
0.13404068 -0.14117935 0.035923213 0 0 0 255
0.13659528 -0.14024104 0.034492914 0 0 0 255
0.13824616 -0.13971789 0.031379744 0 0 0 255
0.14024548 -0.13903493 0.028892381 0 0 0 255
0.14257969 -0.13820346 0.027038088 0 0 0 255
0.14395286 -0.13780901 0.023396641 0 0 0 255
0.14583179 -0.13717626 0.020701598 0 0 0 255
0.14748384 -0.13665372 0.017587934 0 0 0 255
0.14880052 -0.13627988 0.013840329 0 0 0 255
0.15045941 -0.13575591 0.010722667 0 0 0 255
0.15121916 -0.1356369 0.0059176385 0 0 0 255
0.1532165 -0.1349525 0.0034299083 0 0 0 255
0.15397282 -0.1348443 -0.0013711154 0 0 0 255
0.15507208 -0.13456768 -0.0055462122 0 0 0 255
0.15577759 -0.13447796 -0.010456894 0 0 0 255
0.15670347 -0.13428038 -0.014944956 0 0 0 255
