ply
format ascii 1.0
comment PCL generated
element vertex 1013
property float x
property float y
property float z
property uchar red
property uchar green
property uchar blue
property uchar alpha
element camera 0
property float view_px
property float view_py
property float view_pz
property float x_axisx
property float x_axisy
property float x_axisz
property float y_axisx
property float y_axisy
property float y_axisz
property float z_axisx
property float z_axisy
property float z_axisz
property float focal
property float scalex
property float scaley
property float centerx
property float centery
property int viewportx
property int viewporty
property float k1
property float k2
end_header
0.0055565573 0.12846322 -0.041245494 0 0 0 255
0.0057204179 0.12850584 -0.041751567 0 0 0 255
0.012078162 0.13115075 -0.037860695 0 0 0 255
0.013187196 0.13158952 -0.03769568 0 0 0 255
0.014309581 0.13203526 -0.037520811 0 0 0 255
0.015051283 0.13232011 -0.037616871 0 0 0 255
0.015646808 0.13254431 -0.037816785 0 0 0 255
0.016205251 0.13275181 -0.038042944 0 0 0 255
0.01675364 0.13295567 -0.038275626 0 0 0 255
0.017158069 0.13309966 -0.038610071 0 0 0 255
0.017524131 0.13322757 -0.038972486 0 0 0 255
0.017805178 0.13331923 -0.039394774 0 0 0 255
0.018006809 0.13337664 -0.03987461 0 0 0 255
0.018189613 0.1334272 -0.040367123 0 0 0 255
0.018568423 0.13355976 -0.040720049 0 0 0 255
0.018919524 0.13368116 -0.041092694 0 0 0 255
0.019098822 0.13373047 -0.041587673 0 0 0 255
0.01926747 0.13377482 -0.042090911 0 0 0 255
0.019418113 0.13381156 -0.04260597 0 0 0 255
0.01947099 0.13380739 -0.043190397 0 0 0 255
0.019474041 0.13378188 -0.04381055 0 0 0 255
0.019416869 0.13373236 -0.044472959 0 0 0 255
0.019337125 0.13367246 -0.045152254 0 0 0 255
0.019269299 0.13361692 -0.045821555 0 0 0 255
0.019016474 0.13348447 -0.046623558 0 0 0 255
-0.098328665 0.092050567 0.037005041 0 0 0 255
-0.097631395 0.092317119 0.036877815 0 0 0 255
-0.095576234 0.093153432 0.037714273 0 0 0 255
-0.095001414 0.093369037 0.037499569 0 0 0 255
-0.093761981 0.093862697 0.037757356 0 0 0 255
-0.093023315 0.094146445 0.037659705 0 0 0 255
-0.0923547 0.094400436 0.037512399 0 0 0 255
-0.091748193 0.094628625 0.037320741 0 0 0 255
-0.091178283 0.094841376 0.037102345 0 0 0 255
-0.090629771 0.095046327 0.036870528 0 0 0 255
-0.090174824 0.095210843 0.036570445 0 0 0 255
-0.089507967 0.095464192 0.03642191 0 0 0 255
-0.088702284 0.095776588 0.036372308 0 0 0 255
-0.087885514 0.096093014 0.036325134 0 0 0 255
-0.087139189 0.096379548 0.036221616 0 0 0 255
-0.086551875 0.096599683 0.036011938 0 0 0 255
-0.086071312 0.096775651 0.03573034 0 0 0 255
-0.085536264 0.096973583 0.035486434 0 0 0 255
-0.085034192 0.097158439 0.035219118 0 0 0 255
-0.084605083 0.097312495 0.034902789 0 0 0 255
-0.084125802 0.097487994 0.034620821 0 0 0 255
-0.083676599 0.097649358 0.034317546 0 0 0 255
-0.083215803 0.097817078 0.03402289 0 0 0 255
-0.082744949 0.097988449 0.033734769 0 0 0 255
-0.082303911 0.098147899 0.03342706 0 0 0 255
-0.081935495 0.098275594 0.033070341 0 0 0 255
-0.081493981 0.098435223 0.0327635 0 0 0 255
-0.081116334 0.098567352 0.03241244 0 0 0 255
-0.080723703 0.098706 0.032071602 0 0 0 255
-0.080345578 0.098838307 0.031721409 0 0 0 255
-0.07998465 0.098963283 0.03135889 0 0 0 255
-0.079595186 0.099100776 0.031014225 0 0 0 255
-0.079281971 0.099206246 0.03061448 0 0 0 255
-0.078952983 0.099317476 0.030225821 0 0 0 255
-0.078645512 0.099420875 0.029821515 0 0 0 255
-0.078297921 0.099541001 0.02944641 0 0 0 255
-0.077957474 0.099657454 0.029065512 0 0 0 255
-0.07763806 0.099765189 0.028671194 0 0 0 255
-0.077327088 0.099869862 0.028269352 0 0 0 255
-0.077017039 0.099973127 0.027867142 0 0 0 255
-0.07672675 0.1000692 0.027450513 0 0 0 255
-0.076450974 0.10015893 0.027024528 0 0 0 255
-0.076185368 0.1002439 0.02659115 0 0 0 255
-0.075944439 0.10031881 0.026139658 0 0 0 255
-0.075728528 0.10038356 0.025671415 0 0 0 255
-0.075492866 0.10045657 0.025216226 0 0 0 255
-0.075316258 0.10050382 0.024719648 0 0 0 255
-0.07513871 0.10055248 0.024223434 0 0 0 255
-0.07491006 0.10062292 0.023763316 0 0 0 255
-0.074707016 0.10068192 0.023284717 0 0 0 255
-0.074516267 0.1007354 0.02279886 0 0 0 255
-0.074339189 0.10078388 0.022301782 0 0 0 255
-0.074197307 0.10081743 0.02178056 0 0 0 255
-0.074055433 0.10085096 0.021259338 0 0 0 255
-0.073924206 0.10087958 0.020729858 0 0 0 255
-0.073778823 0.10091439 0.020211101 0 0 0 255
-0.073678344 0.10093074 0.019660309 0 0 0 255
-0.073584072 0.10094377 0.019105457 0 0 0 255
-0.073449209 0.10097477 0.018579306 0 0 0 255
-0.073295996 0.10101244 0.018064978 0 0 0 255
-0.07322593 0.10101558 0.017492874 0 0 0 255
-0.073118441 0.10103449 0.016947012 0 0 0 255
-0.073026262 0.10104783 0.016390927 0 0 0 255
-0.07298626 0.1010379 0.015796145 0 0 0 255
-0.072866835 0.10106222 0.015258907 0 0 0 255
-0.072795011 0.10106602 0.014688036 0 0 0 255
-0.072834991 0.10102379 0.014037948 0 0 0 255
-0.072894849 0.10097221 0.013373939 0 0 0 255
-0.072995767 0.10090356 0.012678992 0 0 0 255
-0.073119015 0.1008257 0.011970265 0 0 0 255
-0.073231734 0.10075276 0.011267561 0 0 0 255
-0.073446199 0.10063639 0.01049353 0 0 0 255
-0.073625006 0.10053513 0.0097445082 0 0 0 255
-0.073732466 0.1004641 0.0090455012 0 0 0 255
-0.07379058 0.10041314 0.0083827246 0 0 0 255
-0.073849969 0.1003628 0.0077182166 0 0 0 255
-0.073768437 0.1003712 0.0071538733 0 0 0 255
-0.07357686 0.10042496 0.0066675162 0 0 0 255
-0.073304117 0.10051358 0.006239932 0 0 0 255
-0.073064938 0.10058786 0.0057872068 0 0 0 255
-0.072878622 0.10063972 0.0052971523 0 0 0 255
-0.072747402 0.10066831 0.004767674 0 0 0 255
-0.072670661 0.10067496 0.0042004976 0 0 0 255
-0.07265918 0.1006536 0.0035865055 0 0 0 255
-0.072752617 0.10058767 0.0028973557 0 0 0 255
-0.072675884 0.10059431 0.0023301821 0 0 0 255
-0.072602779 0.10059857 0.0017596772 0 0 0 255
-0.072460897 0.10063212 0.001238456 0 0 0 255
-0.066851541 0.10277691 0.00024284236 0 0 0 255
-0.066725582 0.1028036 -0.00029033422 0 0 0 255
-0.066449799 0.10289333 -0.00071631838 0 0 0 255
-0.065657452 0.10319874 -0.00077577867 0 0 0 255
-0.064554617 0.10363526 -0.00061619468 0 0 0 255
-0.063793838 0.10392916 -0.00069783255 0 0 0 255
-0.063180782 0.10415974 -0.00088542886 0 0 0 255
-0.055531953 0.10734266 0.0039215768 0 0 0 255
-0.05419299 0.10787788 0.0042499546 0 0 0 255
-0.053263232 0.10824181 0.0042868294 0 0 0 255
-0.052250549 0.10864125 0.0043837102 0 0 0 255
-0.051437512 0.10895525 0.0043390356 0 0 0 255
-0.050486587 0.10932795 0.0043915617 0 0 0 255
-0.049256384 0.10981827 0.004642318 0 0 0 255
-0.04831247 0.11018842 0.004689916 0 0 0 255
-0.047536384 0.1104879 0.0046185018 0 0 0 255
-0.046941802 0.1107107 0.0044182194 0 0 0 255
-0.046362534 0.11092791 0.004207714 0 0 0 255
-0.045793913 0.11114018 0.0039889505 0 0 0 255
-0.045350779 0.11130041 0.0036811109 0 0 0 255
-0.044889171 0.11146735 0.0033873243 0 0 0 255
-0.044329789 0.11167626 0.0031615342 0 0 0 255
-0.043794956 0.11187517 0.0029198606 0 0 0 255
-0.043261193 0.11207263 0.0026755894 0 0 0 255
-0.042690817 0.11228554 0.0024580578 0 0 0 255
-0.042145465 0.11248828 0.0022237771 0 0 0 255
-0.041623507 0.11268146 0.0019717473 0 0 0 255
-0.041130204 0.11286206 0.001699638 0 0 0 255
-0.040672567 0.11302755 0.0014025212 0 0 0 255
-0.040221944 0.11319049 0.001100476 0 0 0 255
-0.039807469 0.11333815 0.0007725571 0 0 0 255
-0.039451577 0.11346131 0.00040274777 0 0 0 255
-0.039178014 0.11355023 -2.5335758e-05 0 0 0 255
-0.038858265 0.11365809 -0.00042101881 0 0 0 255
-0.038503192 0.11378094 -0.00079032854 0 0 0 255
-0.03810145 0.11392396 -0.0011277378 0 0 0 255
-0.037692226 0.11406971 -0.0014593529 0 0 0 255
-0.0373271 0.11419621 -0.0018221362 0 0 0 255
-0.036955774 0.11432604 -0.0021808569 0 0 0 255
-0.036605146 0.11444727 -0.0025543626 0 0 0 255
-0.036267258 0.1145628 -0.002935993 0 0 0 255
-0.035966456 0.1146627 -0.003345229 0 0 0 255
-0.03572014 0.11474065 -0.0037921597 0 0 0 255
-0.035483658 0.11481288 -0.0042464826 0 0 0 255
-0.035296407 0.11486613 -0.0047361702 0 0 0 255
-0.035056289 0.11494075 -0.0051871627 0 0 0 255
-0.034836061 0.11500707 -0.005653441 0 0 0 255
-0.034601331 0.11507867 -0.0061089955 0 0 0 255
-0.03440835 0.11513401 -0.0065941205 0 0 0 255
-0.034256425 0.11517122 -0.0071088159 0 0 0 255
-0.034129985 0.11519808 -0.0076411255 0 0 0 255
-0.034044947 0.11520773 -0.0082030054 0 0 0 255
-0.03396821 0.11521439 -0.0087701799 0 0 0 255
-0.03393428 0.11520226 -0.0093681561 0 0 0 255
-0.033843979 0.11521384 -0.0099263405 0 0 0 255
-0.033769593 0.11521857 -0.010496479 0 0 0 255
-0.033697642 0.11522347 -0.011066483 0 0 0 255
-0.033592377 0.11524157 -0.011614445 0 0 0 255
-0.033453662 0.11527289 -0.01213813 0 0 0 255
-0.033334237 0.11529721 -0.012675369 0 0 0 255
-0.033251423 0.11530606 -0.013239346 0 0 0 255
-0.033134572 0.11532944 -0.013777317 0 0 0 255
-0.033120528 0.11530901 -0.014390578 0 0 0 255
-0.033075951 0.11530183 -0.014980298 0 0 0 255
-0.032965422 0.11532183 -0.015524561 0 0 0 255
-0.033047736 0.11526102 -0.016204588 0 0 0 255
-0.03306175 0.11522931 -0.016836196 0 0 0 255
-0.033023033 0.11521892 -0.017431343 0 0 0 255
-0.03305997 0.11517782 -0.018079832 0 0 0 255
-0.033051535 0.11515535 -0.018695425 0 0 0 255
-0.033016786 0.11514352 -0.019293901 0 0 0 255
-0.033089399 0.1150873 -0.019967401 0 0 0 255
-0.033185866 0.11502025 -0.02065815 0 0 0 255
-0.033339046 0.11493044 -0.021388691 0 0 0 255
-0.033346519 0.11490113 -0.022016237 0 0 0 255
-0.03350509 0.1148083 -0.022751341 0 0 0 255
-0.033548228 0.11476386 -0.023403894 0 0 0 255
-0.0077483132 0.12540543 -0.0095492629 0 0 0 255
-0.0072347764 0.12559552 -0.0098088207 0 0 0 255
-0.0063165464 0.1259542 -0.0097958287 0 0 0 255
-0.0053745881 0.12632364 -0.0097678192 0 0 0 255
-0.0045709386 0.12663528 -0.0098311799 0 0 0 255
-0.0039023608 0.12688926 -0.009986545 0 0 0 255
-0.0035013147 0.12703204 -0.010321223 0 0 0 255
-0.0032608211 0.12710573 -0.010764153 0 0 0 255
-0.0031736232 0.12711619 -0.011310042 0 0 0 255
-0.0030784644 0.1271306 -0.011850638 0 0 0 255
-0.0080756545 0.12479784 -0.020878281 0 0 0 255
-0.0076643378 0.12494327 -0.021208666 0 0 0 255
-0.007282827 0.12507787 -0.021559993 0 0 0 255
-0.0068339631 0.12524018 -0.021863271 0 0 0 255
-0.0063424073 0.12542015 -0.022136612 0 0 0 255
-0.0058116838 0.12561651 -0.022382479 0 0 0 255
-0.0052787326 0.12581366 -0.022626253 0 0 0 255
-0.0046585388 0.12604791 -0.022808053 0 0 0 255
-0.0041136518 0.12625048 -0.0230432 0 0 0 255
-0.0036256127 0.12642917 -0.023319004 0 0 0 255
-0.0031482205 0.12660292 -0.023603069 0 0 0 255
-0.0027015731 0.12676442 -0.023908444 0 0 0 255
-0.0023024008 0.1269065 -0.024246585 0 0 0 255
-0.0018839426 0.12705562 -0.024571175 0 0 0 255
-0.0014796406 0.12719852 -0.024906486 0 0 0 255
-0.0010844432 0.12733914 -0.025247959 0 0 0 255
-0.00068634003 0.12747979 -0.025588697 0 0 0 255
-0.00031899288 0.12760711 -0.025949381 0 0 0 255
4.228577e-05 0.12773328 -0.026314629 0 0 0 255
0.00040694326 0.12785961 -0.026678279 0 0 0 255
0.00073207915 0.12797049 -0.027069401 0 0 0 255
0.0010583773 0.12808074 -0.027461022 0 0 0 255
0.0013750903 0.12818749 -0.027858302 0 0 0 255
0.0016865395 0.12829234 -0.028259279 0 0 0 255
0.0019962415 0.12839654 -0.028661489 0 0 0 255
0.0023186877 0.12850538 -0.02905421 0 0 0 255
0.0026266314 0.12860894 -0.029457649 0 0 0 255
0.0028987788 0.12869629 -0.029886965 0 0 0 255
0.0031366721 0.12877011 -0.030340057 0 0 0 255
0.0034167767 0.12886141 -0.030764077 0 0 0 255
0.003610231 0.12891692 -0.031248335 0 0 0 255
0.0037793517 0.12896144 -0.031750709 0 0 0 255
0.0039471909 0.12900551 -0.032253452 0 0 0 255
0.0040683672 0.12903045 -0.032789458 0 0 0 255
0.0041995905 0.12905906 -0.033318937 0 0 0 255
0.0042828768 0.12906809 -0.033882052 0 0 0 255
0.0043648779 0.12907666 -0.034445528 0 0 0 255
0.0044855848 0.12910144 -0.034982398 0 0 0 255
0.0045596287 0.12910603 -0.035551172 0 0 0 255
0.0046274737 0.12910838 -0.036125373 0 0 0 255
0.0046847984 0.12910689 -0.036706965 0 0 0 255
0.0046993084 0.12908664 -0.037319362 0 0 0 255
0.0047112554 0.12906544 -0.037932489 0 0 0 255
0.0047364198 0.12905012 -0.038536623 0 0 0 255
0.0047646165 0.12903592 -0.039139166 0 0 0 255
0.0048085973 0.12902746 -0.039730616 0 0 0 255
0.004854463 0.12902072 -0.040319964 0 0 0 255
0.0050020702 0.12905635 -0.040836629 0 0 0 255
0.0052342266 0.12912808 -0.041294277 0 0 0 255
0.0054566748 0.12919521 -0.041758459 0 0 0 255
0.011479799 0.13169599 -0.038105607 0 0 0 255
0.012320556 0.13202222 -0.038131934 0 0 0 255
0.013295814 0.13240589 -0.038061295 0 0 0 255
0.014395621 0.13284129 -0.037903313 0 0 0 255
0.015023295 0.13307826 -0.038079314 0 0 0 255
0.015529823 0.13326474 -0.038342435 0 0 0 255
0.016090013 0.13347289 -0.03856736 0 0 0 255
0.016461812 0.13360287 -0.038925216 0 0 0 255
0.016860515 0.13374479 -0.039264224 0 0 0 255
0.017084714 0.13381258 -0.039727166 0 0 0 255
0.01731196 0.13388145 -0.040188517 0 0 0 255
0.01755875 0.13395955 -0.040634584 0 0 0 255
0.017871831 0.13406393 -0.041035194 0 0 0 255
0.018200468 0.13417609 -0.041423853 0 0 0 255
0.018464327 0.13426042 -0.041858464 0 0 0 255
0.018667359 0.13431941 -0.04233706 0 0 0 255
0.018793799 0.13434628 -0.04286937 0 0 0 255
0.018833932 0.13433747 -0.043463286 0 0 0 255
0.018826924 0.13430831 -0.044089966 0 0 0 255
0.018741105 0.13424622 -0.044772454 0 0 0 255
0.01866452 0.13418855 -0.045449287 0 0 0 255
0.018496238 0.13409111 -0.046190914 0 0 0 255
0.018332414 0.13399637 -0.046929713 0 0 0 255
-0.097559176 0.093114927 0.036485959 0 0 0 255
-0.095965281 0.093756765 0.036994457 0 0 0 255
-0.095536634 0.093910642 0.036677264 0 0 0 255
-0.094388895 0.094365619 0.036868878 0 0 0 255
-0.09336932 0.094766498 0.036969818 0 0 0 255
-0.092623517 0.095053896 0.03687796 0 0 0 255
-0.091878772 0.09533985 0.036783505 0 0 0 255
-0.09130092 0.095555499 0.036571763 0 0 0 255
-0.090776742 0.095749468 0.036321834 0 0 0 255
-0.090138875 0.095991194 0.03615322 0 0 0 255
-0.089487925 0.096237697 0.035992727 0 0 0 255
-0.088721074 0.09653382 0.035914287 0 0 0 255
-0.087848164 0.096872814 0.035911873 0 0 0 255
-0.087242246 0.097100787 0.035717115 0 0 0 255
-0.086665452 0.0973171 0.03550005 0 0 0 255
-0.086164191 0.097501673 0.035233233 0 0 0 255
-0.085640259 0.097694486 0.034980204 0 0 0 255
-0.08510299 0.097894281 0.034737028 0 0 0 255
-0.084643602 0.098060422 0.034441143 0 0 0 255
-0.084154278 0.098239578 0.034165703 0 0 0 255
-0.083681539 0.098412693 0.033879675 0 0 0 255
-0.083216079 0.098581046 0.03358699 0 0 0 255
-0.08276628 0.098743692 0.033285446 0 0 0 255
-0.082362182 0.09888757 0.032952365 0 0 0 255
-0.081937529 0.099038944 0.032633204 0 0 0 255
-0.081523255 0.099187583 0.032307517 0 0 0 255
-0.08112362 0.099328779 0.031971607 0 0 0 255
-0.080742933 0.099462017 0.031622145 0 0 0 255
-0.080379903 0.099588819 0.031258132 0 0 0 255
-0.080027044 0.099710859 0.030886723 0 0 0 255
-0.079715595 0.099815704 0.030485746 0 0 0 255
-0.079353161 0.099941224 0.030119998 0 0 0 255
-0.078987904 0.10006884 0.029758081 0 0 0 255
-0.078632489 0.10019181 0.029387405 0 0 0 255
-0.078272149 0.10031658 0.029021792 0 0 0 255
-0.07794936 0.10042555 0.028627707 0 0 0 255
-0.077611819 0.10054201 0.028246077 0 0 0 255
-0.077314526 0.10064064 0.027834374 0 0 0 255
-0.077012777 0.10074089 0.027426874 0 0 0 255
-0.076729983 0.10083317 0.027005816 0 0 0 255
-0.076444492 0.1009275 0.026586356 0 0 0 255
-0.076181576 0.10101148 0.026150014 0 0 0 255
-0.075940177 0.10108657 0.025699388 0 0 0 255
-0.075721234 0.10115242 0.025232743 0 0 0 255
-0.075531282 0.10120666 0.024746021 0 0 0 255
-0.075322866 0.10126868 0.024271986 0 0 0 255
-0.075090826 0.1013393 0.023813466 0 0 0 255
-0.074906141 0.10139161 0.023323046 0 0 0 255
-0.074696086 0.10145317 0.022849375 0 0 0 255
-0.07449913 0.10150996 0.02236758 0 0 0 255
-0.074315041 0.10156099 0.021875428 0 0 0 255
-0.074174449 0.10159408 0.021353841 0 0 0 255
-0.074062504 0.10161567 0.020810809 0 0 0 255
-0.0738969 0.10165891 0.020305971 0 0 0 255
-0.073756769 0.10169182 0.019783517 0 0 0 255
-0.07364881 0.10171089 0.019238522 0 0 0 255
-0.073557571 0.10172388 0.018680701 0 0 0 255
-0.073400259 0.10176412 0.018170569 0 0 0 255
-0.073261887 0.10179638 0.017646885 0 0 0 255
-0.073089726 0.10184201 0.017146109 0 0 0 255
-0.073031463 0.10184088 0.016566247 0 0 0 255
-0.072927482 0.1018585 0.016017921 0 0 0 255
-0.072758228 0.10190413 0.015516413 0 0 0 255
-0.072709337 0.10189852 0.014928658 0 0 0 255
-0.072729081 0.10186473 0.014292487 0 0 0 255
-0.072741807 0.10183349 0.013661244 0 0 0 255
-0.072764248 0.10179766 0.013023475 0 0 0 255
-0.072881758 0.10172296 0.012317941 0 0 0 255
-0.072982088 0.10165559 0.01162473 0 0 0 255
-0.073157847 0.10155544 0.010877305 0 0 0 255
-0.073389851 0.10143268 0.010090956 0 0 0 255
-0.07354971 0.10133938 0.0093554864 0 0 0 255
-0.073648274 0.10127264 0.0086635062 0 0 0 255
-0.073787771 0.10118889 0.00794282 0 0 0 255
-0.073776767 0.10116735 0.0073279617 0 0 0 255
-0.073615938 0.10120887 0.0068202913 0 0 0 255
-0.073412903 0.10126786 0.0063416949 0 0 0 255
-0.073265642 0.10130443 0.0058250343 0 0 0 255
-0.073110208 0.10134292 0.0053128032 0 0 0 255
-0.072981074 0.10137182 0.0047820928 0 0 0 255
-0.072886325 0.10138503 0.0042281039 0 0 0 255
-0.072836488 0.10138081 0.0036407178 0 0 0 255
-0.072886638 0.10133383 0.0029832348 0 0 0 255
-0.072864987 0.10131723 0.0023766337 0 0 0 255
-0.072730124 0.10134823 0.0018504849 0 0 0 255
-0.072458446 0.1014354 0.0014203023 0 0 0 255
-0.071944915 0.10162444 0.0011621136 0 0 0 255
-0.07176818 0.10167279 0.00066639949 0 0 0 255
-0.067089647 0.10345221 -0.00036868826 0 0 0 255
-0.066951752 0.1034843 -0.00089323893 0 0 0 255
-0.066083968 0.10382248 -0.00089848693 0 0 0 255
-0.064936221 0.10427746 -0.00070686918 0 0 0 255
-0.064184815 0.10456584 -0.00079503283 0 0 0 255
-0.063465565 0.10484145 -0.00090710446 0 0 0 255
-0.063164294 0.10494153 -0.0013154754 0 0 0 255
-0.05478574 0.10842516 0.0040073683 0 0 0 255
-0.053911418 0.10876573 0.0040061828 0 0 0 255
-0.052951597 0.10914272 0.0040657353 0 0 0 255
-0.052176453 0.10944081 0.0039939554 0 0 0 255
-0.051195119 0.10982671 0.0040677926 0 0 0 255
-0.050140686 0.1102424 0.0041942429 0 0 0 255
-0.049139597 0.11063549 0.0042824997 0 0 0 255
-0.048138846 0.11102952 0.0043707555 0 0 0 255
-0.047457494 0.11128921 0.0042315773 0 0 0 255
-0.046860687 0.1115128 0.0040333928 0 0 0 255
-0.046312768 0.11171648 0.0037998441 0 0 0 255
-0.04582648 0.11189453 0.0035228066 0 0 0 255
-0.045375858 0.11205748 0.0032207614 0 0 0 255
-0.044766307 0.11228678 0.0030307015 0 0 0 255
-0.04417558 0.11250924 0.0028279549 0 0 0 255
-0.043628946 0.11271244 0.00259404 0 0 0 255
-0.043052841 0.11292744 0.0023810707 0 0 0 255
-0.042500131 0.11313286 0.0021503523 0 0 0 255
-0.041971967 0.11332828 0.0019037507 0 0 0 255
-0.041473746 0.11351174 0.0016353377 0 0 0 255
-0.041011795 0.1136788 0.0013401852 0 0 0 255
-0.040578365 0.11383443 0.0010258192 0 0 0 255
-0.040195104 0.11396966 0.00067572296 0 0 0 255
-0.039806113 0.11410698 0.00033018889 0 0 0 255
-0.039487176 0.11421455 -6.4994383e-05 0 0 0 255
-0.039100878 0.1143509 -0.0004134925 0 0 0 255
-0.03868464 0.11449919 -0.00074017921 0 0 0 255
-0.038286068 0.11464 -0.0010800528 0 0 0 255
-0.037874624 0.11478655 -0.0014095698 0 0 0 255
-0.03751253 0.11491302 -0.0017753169 0 0 0 255
-0.037121318 0.11505115 -0.0021187528 0 0 0 255
-0.036775604 0.11516953 -0.002495955 0 0 0 255
-0.036452688 0.1152796 -0.002889174 0 0 0 255
-0.036149662 0.11538031 -0.0032963119 0 0 0 255
-0.035896331 0.11546081 -0.0037383141 0 0 0 255
-0.035681363 0.11552522 -0.0042082882 0 0 0 255
-0.035499841 0.11557532 -0.004701172 0 0 0 255
-0.035250146 0.11565342 -0.0051465044 0 0 0 255
-0.035017513 0.11572532 -0.0056032916 0 0 0 255
-0.034796815 0.11579182 -0.0060687033 0 0 0 255
-0.034586165 0.11585465 -0.0065406412 0 0 0 255
-0.034429327 0.11589471 -0.0070516397 0 0 0 255
-0.034295872 0.11592413 -0.0075790221 0 0 0 255
-0.034162764 0.11595448 -0.008106404 0 0 0 255
-0.034072936 0.11596589 -0.0086654536 0 0 0 255
-0.034008939 0.11596789 -0.0092421183 0 0 0 255
-0.033944603 0.11596896 -0.009818783 0 0 0 255
-0.033857338 0.11597943 -0.010378566 0 0 0 255
-0.03373488 0.11600485 -0.010914206 0 0 0 255
-0.033628203 0.11602346 -0.011459569 0 0 0 255
-0.033483285 0.11605812 -0.011979192 0 0 0 255
-0.033307027 0.1161063 -0.012475772 0 0 0 255
-0.033173103 0.11613695 -0.013003653 0 0 0 255
-0.033036489 0.11616859 -0.013528571 0 0 0 255
-0.032904793 0.11619737 -0.014057186 0 0 0 255
-0.032821037 0.11620656 -0.014619431 0 0 0 255
-0.032777868 0.11619888 -0.015211748 0 0 0 255
-0.032801937 0.11616349 -0.015849881 0 0 0 255
-0.032867994 0.11610966 -0.016519319 0 0 0 255
-0.032831375 0.11609959 -0.017115697 0 0 0 255
-0.032835335 0.11607154 -0.017740779 0 0 0 255
-0.032830872 0.11604761 -0.018359702 0 0 0 255
-0.032836467 0.11602005 -0.018985149 0 0 0 255
-0.032896794 0.11596829 -0.019650023 0 0 0 255
-0.032997582 0.11590075 -0.020344101 0 0 0 255
-0.033076737 0.11584213 -0.021021664 0 0 0 255
-0.033142798 0.1157883 -0.021691103 0 0 0 255
-0.033306628 0.11569355 -0.0224299 0 0 0 255
-0.033431627 0.11561507 -0.023139864 0 0 0 255
-0.033580828 0.11552777 -0.02386844 0 0 0 255
-0.008083351 0.12605394 -0.0096064042 0 0 0 255
-0.0076972693 0.1261902 -0.0099513037 0 0 0 255
-0.0069069713 0.12649488 -0.010024521 0 0 0 255
-0.0061319806 0.12679395 -0.010107961 0 0 0 255
-0.0053460002 0.12709813 -0.01018451 0 0 0 255
-0.0047121495 0.12733734 -0.010363149 0 0 0 255
-0.0042043477 0.12752427 -0.010625902 0 0 0 255
-0.0039277151 0.12761432 -0.011044326 0 0 0 255
-0.0037974827 0.12764256 -0.011561647 0 0 0 255
-0.0037233718 0.12764825 -0.01211566 0 0 0 255
-0.0084711164 0.12542649 -0.020979544 0 0 0 255
-0.0079610944 0.12561424 -0.021240199 0 0 0 255
-0.0075004175 0.12578085 -0.021535717 0 0 0 255
-0.0070810206 0.12593137 -0.02185994 0 0 0 255
-0.0066366047 0.12609099 -0.022166047 0 0 0 255
-0.0061348714 0.12627573 -0.022431998 0 0 0 255
-0.0055121072 0.12651089 -0.022613065 0 0 0 255
-0.0048950762 0.12674293 -0.022797331 0 0 0 255
-0.004355453 0.12694357 -0.023036174 0 0 0 255
-0.0038669407 0.12712243 -0.023311112 0 0 0 255
-0.003393054 0.12729491 -0.023597641 0 0 0 255
-0.0029631294 0.12744926 -0.023914471 0 0 0 255
-0.0025415048 0.1276006 -0.024236595 0 0 0 255
-0.0021037571 0.12775779 -0.024548996 0 0 0 255
-0.001683075 0.12790769 -0.024871487 0 0 0 255
-0.0012795813 0.12805136 -0.025207665 0 0 0 255
-0.00089281425 0.12818787 -0.025555298 0 0 0 255
-0.00052816048 0.12831421 -0.025918948 0 0 0 255
-0.00019998103 0.12842621 -0.026308468 0 0 0 255
0.00012421235 0.12853569 -0.026699958 0 0 0 255
0.00044409186 0.12864465 -0.027094774 0 0 0 255
0.00073835626 0.12874217 -0.027508073 0 0 0 255
0.0010550693 0.12884894 -0.027905352 0 0 0 255
0.0013646372 0.12895203 -0.028308429 0 0 0 255
0.0017187744 0.12907453 -0.02867947 0 0 0 255
0.0020461343 0.12918623 -0.029068494 0 0 0 255
0.0023623817 0.12929282 -0.02946664 0 0 0 255
0.0026601441 0.12939161 -0.029877475 0 0 0 255
0.0029201508 0.12947559 -0.03031455 0 0 0 255
0.0031768605 0.12955625 -0.030754954 0 0 0 255
0.0033751056 0.12961352 -0.03123638 0 0 0 255
0.0035558157 0.12966439 -0.03173013 0 0 0 255
0.0037289113 0.12971038 -0.032229174 0 0 0 255
0.003858041 0.12973927 -0.032759886 0 0 0 255
0.0039814487 0.12976502 -0.033293795 0 0 0 255
0.0040510409 0.12976801 -0.033866763 0 0 0 255
0.0041255616 0.12977386 -0.03443604 0 0 0 255
0.0041956268 0.12977701 -0.03500814 0 0 0 255
0.0042801984 0.12978649 -0.035570886 0 0 0 255
0.0043497942 0.12978949 -0.036143854 0 0 0 255
0.0043921508 0.12978148 -0.036735669 0 0 0 255
0.0044107623 0.12976378 -0.037343867 0 0 0 255
0.0044728853 0.12976404 -0.037922632 0 0 0 255
0.0044782832 0.12974046 -0.038539823 0 0 0 255
0.0045271814 0.12973484 -0.039127573 0 0 0 255
0.0045079067 0.12970124 -0.039762881 0 0 0 255
0.0045872144 0.12970883 -0.040329322 0 0 0 255
0.0047207922 0.12973934 -0.04085584 0 0 0 255
0.004930377 0.12980072 -0.041330375 0 0 0 255
0.0051216036 0.12985542 -0.041816734 0 0 0 255
0.0053582117 0.12992877 -0.042270187 0 0 0 255
0.011624094 0.13252749 -0.038446218 0 0 0 255
0.012433149 0.13284004 -0.038494218 0 0 0 255
0.013349816 0.13319921 -0.03846547 0 0 0 255
0.014141213 0.13350426 -0.038526658 0 0 0 255
0.014782585 0.13374728 -0.03869281 0 0 0 255
0.015330028 0.13395078 -0.038927224 0 0 0 255
0.015750248 0.13410053 -0.039250582 0 0 0 255
0.016052932 0.13420218 -0.039657719 0 0 0 255
0.016348477 0.13430017 -0.040070653 0 0 0 255
0.01657572 0.13436903 -0.040532004 0 0 0 255
0.016841449 0.13445511 -0.04096451 0 0 0 255
0.017171375 0.13456775 -0.041352801 0 0 0 255
0.01751709 0.13468611 -0.041730005 0 0 0 255
0.017822001 0.13478857 -0.042135045 0 0 0 255
0.018021535 0.1348463 -0.04261611 0 0 0 255
0.018032193 0.13482465 -0.043229602 0 0 0 255
0.018008813 0.13478847 -0.043869101 0 0 0 255
0.018053047 0.13478221 -0.044458821 0 0 0 255
0.018087789 0.13477039 -0.045057297 0 0 0 255
0.017964542 0.13469253 -0.045766026 0 0 0 255
0.017851818 0.13461959 -0.046468727 0 0 0 255
0.017689399 0.13452643 -0.047206298 0 0 0 255
-0.09640187 0.094345987 0.036240868 0 0 0 255
-0.095620044 0.094647549 0.036174018 0 0 0 255
-0.094463535 0.095105723 0.036371797 0 0 0 255
-0.093594939 0.095444202 0.036366053 0 0 0 255
-0.092603557 0.095832691 0.036447778 0 0 0 255
-0.091954358 0.09607856 0.036286056 0 0 0 255
-0.091335446 0.096312329 0.036103893 0 0 0 255
-0.090706483 0.096549749 0.035928249 0 0 0 255
-0.090162069 0.096752152 0.035692237 0 0 0 255
-0.08948563 0.097008988 0.035549361 0 0 0 255
-0.088700309 0.097311847 0.035484973 0 0 0 255
-0.088038705 0.097563282 0.035332743 0 0 0 255
-0.087396994 0.097806409 0.035165224 0 0 0 255
-0.086841121 0.098012984 0.034938335 0 0 0 255
-0.086284779 0.098220795 0.034710947 0 0 0 255
-0.085708678 0.098435789 0.03449798 0 0 0 255
-0.085227773 0.098610818 0.034216382 0 0 0 255
-0.084679976 0.098814458 0.033980601 0 0 0 255
-0.084215671 0.098983444 0.033688411 0 0 0 255
-0.083743066 0.099155456 0.033401515 0 0 0 255
-0.083306819 0.09931317 0.033090979 0 0 0 255
-0.08284615 0.099479765 0.032795463 0 0 0 255
-0.082441717 0.09962377 0.032461017 0 0 0 255
-0.082039639 0.099765852 0.032123607 0 0 0 255
-0.081612751 0.099919096 0.03180518 0 0 0 255
-0.08126165 0.10004049 0.031432539 0 0 0 255
-0.080883786 0.1001727 0.031077882 0 0 0 255
-0.080555141 0.10028486 0.030689223 0 0 0 255
-0.08014369 0.10043142 0.030359708 0 0 0 255
-0.079753883 0.10056904 0.030013673 0 0 0 255
-0.079372376 0.10070363 0.029662345 0 0 0 255
-0.078988776 0.10083792 0.029312247 0 0 0 255
-0.078627966 0.10096393 0.028946135 0 0 0 255
-0.078274637 0.10108614 0.028575594 0 0 0 255
-0.07794296 0.1011994 0.028188534 0 0 0 255
-0.077649981 0.10129645 0.02777487 0 0 0 255
-0.077353969 0.10139462 0.027362803 0 0 0 255
-0.077046022 0.10149819 0.026959363 0 0 0 255
-0.076760188 0.10159157 0.026539903 0 0 0 255
-0.076497152 0.10167667 0.026104426 0 0 0 255
-0.076221839 0.10176623 0.025677577 0 0 0 255
-0.07598792 0.10183859 0.025221156 0 0 0 255
-0.075758323 0.10190938 0.02476277 0 0 0 255
-0.075532839 0.10197762 0.024300188 0 0 0 255
-0.075288273 0.10205492 0.023852026 0 0 0 255
-0.07506758 0.10212142 0.023386614 0 0 0 255
-0.074840203 0.1021914 0.022926131 0 0 0 255
-0.074648976 0.1022461 0.022439774 0 0 0 255
-0.074437983 0.102308 0.021967836 0 0 0 255
-0.074283361 0.10234725 0.021454738 0 0 0 255
-0.074171424 0.10236884 0.020911705 0 0 0 255
-0.074017137 0.10240795 0.020399975 0 0 0 255
-0.073877484 0.10244069 0.019876655 0 0 0 255
-0.073754907 0.10246722 0.01934188 0 0 0 255
-0.073603317 0.10250536 0.018827185 0 0 0 255
-0.073455706 0.102541 0.018310526 0 0 0 255
-0.073297113 0.10258169 0.017800761 0 0 0 255
-0.073139802 0.10262192 0.017290629 0 0 0 255
-0.073021181 0.102647 0.016752522 0 0 0 255
-0.072896503 0.10267323 0.016218981 0 0 0 255
-0.072770536 0.10269991 0.015685804 0 0 0 255
-0.072714962 0.10269779 0.015102979 0 0 0 255
-0.07265003 0.10270014 0.014528046 0 0 0 255
-0.072666734 0.10266746 0.013893474 0 0 0 255
-0.072637469 0.1026547 0.013293533 0 0 0 255
-0.072715804 0.10259639 0.012615472 0 0 0 255
-0.072797179 0.10253698 0.011935811 0 0 0 255
-0.072952583 0.10244636 0.011203174 0 0 0 255
-0.073047645 0.1023809 0.010513658 0 0 0 255
-0.073220111 0.10228407 0.0097695617 0 0 0 255
-0.073404178 0.10218091 0.0090168454 0 0 0 255
-0.073537 0.10210064 0.0083010877 0 0 0 255
-0.073693685 0.10200956 0.0075680828 0 0 0 255
-0.07360737 0.10201968 0.0070065698 0 0 0 255
-0.073493205 0.10204208 0.0064656343 0 0 0 255
-0.073437169 0.10204013 0.0058836751 0 0 0 255
-0.073293537 0.10207433 0.0053636851 0 0 0 255
-0.07319387 0.10209143 0.0048120273 0 0 0 255
-0.07311713 0.10209808 0.0042448556 0 0 0 255
-0.073060274 0.10209642 0.0036623944 0 0 0 255
-0.073061079 0.10207059 0.0030397763 0 0 0 255
-0.073008195 0.10206643 0.0024553528 0 0 0 255
-0.072811574 0.10212415 0.0019735582 0 0 0 255
-0.072388329 0.10227501 0.0016517993 0 0 0 255
-0.07193467 0.10243905 0.0013513528 0 0 0 255
-0.071738183 0.10249567 0.00086869299 0 0 0 255
-0.071633257 0.10251471 0.00032073166 0 0 0 255
-0.066395476 0.10450085 -0.0009396458 0 0 0 255
-0.065337546 0.10491782 -0.00081073027 0 0 0 255
-0.064636305 0.10518581 -0.00093462318 0 0 0 255
-0.063976586 0.1054355 -0.0010889536 0 0 0 255
-0.063611805 0.10556295 -0.0014517372 0 0 0 255
-0.055381708 0.10897872 0.0037652829 0 0 0 255
-0.054684564 0.10924415 0.0036371932 0 0 0 255
-0.053639378 0.10965648 0.0037566177 0 0 0 255
-0.052854523 0.10995916 0.0036913638 0 0 0 255
-0.051709004 0.11041226 0.0038822489 0 0 0 255
-0.050669551 0.11082144 0.0039984765 0 0 0 255
-0.049789149 0.11116422 0.0040004868 0 0 0 255
-0.048809227 0.11154854 0.0040730922 0 0 0 255
-0.048013721 0.11185616 0.0040160972 0 0 0 255
-0.047312133 0.11212321 0.0038922036 0 0 0 255
-0.046730302 0.11234137 0.0036824304 0 0 0 255
-0.046245761 0.11251879 0.003404161 0 0 0 255
-0.045793392 0.11268237 0.0031033477 0 0 0 255
-0.045260441 0.11287953 0.0028595764 0 0 0 255
-0.044690065 0.11309243 0.0026420448 0 0 0 255
-0.044068582 0.11332715 0.0024606097 0 0 0 255
-0.043465108 0.11355424 0.0022673532 0 0 0 255
-0.042934384 0.11375058 0.0020214838 0 0 0 255
-0.042403657 0.11394694 0.0017756145 0 0 0 255
-0.041906379 0.114129 0.0015068355 0 0 0 255
-0.041429322 0.11430369 0.0012227714 0 0 0 255
-0.040976949 0.11446726 0.00092195842 0 0 0 255
-0.040613577 0.11459314 0.00055794325 0 0 0 255
-0.040187631 0.11474603 0.00023778289 0 0 0 255
-0.039773151 0.1148937 -9.0135843e-05 0 0 0 255
-0.039345451 0.11504722 -0.00040906412 0 0 0 255
-0.03887986 0.11521669 -0.00070088659 0 0 0 255
-0.038474962 0.11536087 -0.0010344659 0 0 0 255
-0.03808165 0.11549976 -0.0013780356 0 0 0 255
-0.037710324 0.11562958 -0.0017367566 0 0 0 255
-0.037310805 0.11577073 -0.0020748982 0 0 0 255
-0.036980875 0.11588336 -0.0024631887 0 0 0 255
-0.036665916 0.11598949 -0.0028617021 0 0 0 255
-0.036357503 0.11609323 -0.0032642777 0 0 0 255
-0.03608441 0.11618198 -0.0036932272 0 0 0 255
-0.035858322 0.11625149 -0.0041540768 0 0 0 255
-0.03562535 0.11632244 -0.004610864 0 0 0 255
-0.035397168 0.11639273 -0.0050718472 0 0 0 255
-0.035116464 0.11648531 -0.0054941364 0 0 0 255
-0.034887001 0.116555 -0.0059533878 0 0 0 255
-0.034689099 0.11661319 -0.0064348159 0 0 0 255
-0.034512833 0.11666138 -0.0069313967 0 0 0 255
-0.034375407 0.11669331 -0.0074568139 0 0 0 255
-0.034202777 0.11673912 -0.0079567237 0 0 0 255
-0.034104396 0.11675577 -0.0085087474 0 0 0 255
-0.034048356 0.11675381 -0.0090907067 0 0 0 255
-0.033947878 0.11677016 -0.0096414983 0 0 0 255
-0.033850908 0.11678524 -0.010194754 0 0 0 255
-0.033743415 0.11680414 -0.010740616 0 0 0 255
-0.033658251 0.11681491 -0.01130163 0 0 0 255
-0.033490416 0.11685897 -0.01180437 0 0 0 255
-0.033319883 0.11690509 -0.012305513 0 0 0 255
-0.033136141 0.11695706 -0.012797664 0 0 0 255
-0.032995544 0.11699013 -0.013319252 0 0 0 255
-0.032838698 0.1170302 -0.01383025 0 0 0 255
-0.032717995 0.11705498 -0.014367122 0 0 0 255
-0.032635991 0.11706353 -0.0149306 0 0 0 255
-0.032590471 0.11705776 -0.015519952 0 0 0 255
-0.032572325 0.11703989 -0.016129017 0 0 0 255
-0.032550666 0.11702329 -0.016735617 0 0 0 255
-0.032557197 0.11699536 -0.017362799 0 0 0 255
-0.032593198 0.1169546 -0.018009558 0 0 0 255
-0.032667212 0.11689787 -0.018685654 0 0 0 255
-0.032681093 0.11686727 -0.019316398 0 0 0 255
-0.03274224 0.11681628 -0.019982141 0 0 0 255
-0.032839052 0.11675019 -0.020672888 0 0 0 255
-0.032995742 0.1166591 -0.021405894 0 0 0 255
-0.033111032 0.11658522 -0.022109328 0 0 0 255
-0.033196386 0.11652435 -0.022792319 0 0 0 255
-0.033337168 0.11644012 -0.023513367 0 0 0 255
-0.033347674 0.11641078 -0.024143878 0 0 0 255
-0.0082055703 0.12677035 -0.010124955 0 0 0 255
-0.0075250529 0.12702973 -0.010271697 0 0 0 255
-0.0067769717 0.12731691 -0.010373982 0 0 0 255
-0.0059905201 0.12762123 -0.010449667 0 0 0 255
-0.0054941736 0.12780294 -0.010720178 0 0 0 255
-0.0050013475 0.12798338 -0.010993151 0 0 0 255
-0.0046969987 0.12808564 -0.011393228 0 0 0 255
-0.0045135617 0.12813644 -0.011874584 0 0 0 255
-0.0043256842 0.12818992 -0.012353111 0 0 0 255
-0.0093612559 0.12587936 -0.020810062 0 0 0 255
-0.0088824518 0.12605469 -0.021092895 0 0 0 255
-0.0082534812 0.12629212 -0.021268537 0 0 0 255
-0.0077257901 0.12648737 -0.021516005 0 0 0 255
-0.0072945878 0.12664218 -0.02183247 0 0 0 255
-0.0068589412 0.12679863 -0.022144737 0 0 0 255
-0.0063613132 0.1269808 -0.02241488 0 0 0 255
-0.005696211 0.12723351 -0.02256465 0 0 0 255
-0.0051186942 0.12745008 -0.022776386 0 0 0 255
-0.0046003722 0.12764087 -0.023031745 0 0 0 255
-0.0041355938 0.12781003 -0.023323067 0 0 0 255
-0.0036749244 0.12797661 -0.023618586 0 0 0 255
-0.0032437146 0.12813143 -0.02393505 0 0 0 255
-0.0028173029 0.1282845 -0.024254344 0 0 0 255
-0.0023789592 0.12844297 -0.024565015 0 0 0 255
-0.0019649453 0.12859048 -0.024893798 0 0 0 255
-0.00153853 0.12874353 -0.025213093 0 0 0 255
-0.0011584349 0.12887655 -0.025565654 0 0 0 255
-0.00079681352 0.1290018 -0.025930902 0 0 0 255
-0.00046465918 0.12911522 -0.026317094 0 0 0 255
-0.00014256313 0.12922502 -0.026709814 0 0 0 255
0.00016316399 0.12932777 -0.027115352 0 0 0 255
0.00044373795 0.12941925 -0.027538506 0 0 0 255
0.00072255731 0.12951007 -0.027962895 0 0 0 255
0.0010340065 0.12961492 -0.028363872 0 0 0 255
0.0014172718 0.12975016 -0.028713968 0 0 0 255
0.0017701238 0.1298722 -0.029085377 0 0 0 255
0.0021000579 0.12998483 -0.029473668 0 0 0 255
0.0024030842 0.13008554 -0.029880807 0 0 0 255
0.0026718527 0.13017271 -0.03031172 0 0 0 255
0.0029181689 0.13025066 -0.030758649 0 0 0 255
0.0031269379 0.13031174 -0.031232687 0 0 0 255
0.0033106841 0.13036373 -0.031724837 0 0 0 255
0.0034442618 0.13039425 -0.032251354 0 0 0 255
0.0035856701 0.13042763 -0.032773443 0 0 0 255
0.0037210025 0.13045879 -0.033298723 0 0 0 255
0.00378979 0.13046254 -0.03387256 0 0 0 255
0.0038458258 0.13046059 -0.034454517 0 0 0 255
0.0038912185 0.13045371 -0.035044737 0 0 0 255
0.0039415322 0.13044965 -0.035631258 0 0 0 255
0.0040287897 0.13046014 -0.036191039 0 0 0 255
0.0040773451 0.13045546 -0.036778793 0 0 0 255
0.0040937439 0.13043696 -0.037389092 0 0 0 255
0.004151538 0.13043565 -0.03796982 0 0 0 255
0.0041251183 0.13039836 -0.038610917 0 0 0 255
0.004218109 0.13041198 -0.039167501 0 0 0 255
0.0042279586 0.13039109 -0.039781861 0 0 0 255
0.0043196715 0.13040425 -0.040338814 0 0 0 255
0.0044338331 0.13042665 -0.040879749 0 0 0 255
0.0045994483 0.13046989 -0.041384585 0 0 0 255
0.0047827214 0.13052064 -0.041876238 0 0 0 255
0.0049981624 0.13058521 -0.042345345 0 0 0 255
0.010924626 0.13303804 -0.038762227 0 0 0 255
0.011720475 0.1333458 -0.038820587 0 0 0 255
0.012401361 0.13360426 -0.038959268 0 0 0 255
0.013165988 0.1338985 -0.039038438 0 0 0 255
0.013805941 0.134141 -0.039207187 0 0 0 255
0.014264986 0.13430807 -0.039503068 0 0 0 255
0.014837585 0.13452178 -0.039718501 0 0 0 255
0.01520494 0.13465017 -0.040080555 0 0 0 255
0.015592515 0.13478592 -0.04042732 0 0 0 255
0.015884552 0.13488263 -0.040842719 0 0 0 255
0.016148068 0.13496789 -0.041277327 0 0 0 255
0.016486764 0.13508371 -0.041659459 0 0 0 255
0.016844872 0.13520767 -0.042027168 0 0 0 255
0.017046284 0.13526714 -0.042506136 0 0 0 255
0.017234478 0.13532074 -0.042994089 0 0 0 255
0.017353904 0.13534504 -0.043531328 0 0 0 255
0.017395791 0.13533688 -0.044124011 0 0 0 255
0.017426208 0.13532346 -0.04472445 0 0 0 255
0.017473482 0.13531832 -0.045312569 0 0 0 255
0.017355971 0.13524362 -0.046018105 0 0 0 255
0.01724688 0.13517308 -0.046717476 0 0 0 255
0.017168544 0.13511476 -0.047395539 0 0 0 255
-0.096409835 0.095115662 0.03579184 0 0 0 255
-0.095591068 0.095432825 0.035750363 0 0 0 255
-0.094479457 0.095871463 0.035917472 0 0 0 255
-0.093550637 0.096233986 0.03595398 0 0 0 255
-0.092702404 0.096562929 0.03593345 0 0 0 255
-0.091989361 0.096835211 0.035817318 0 0 0 255
-0.091331273 0.097085372 0.035662618 0 0 0 255
-0.090753406 0.097301006 0.035450883 0 0 0 255
-0.090135098 0.097533502 0.035266984 0 0 0 255
-0.089490697 0.097777613 0.035102431 0 0 0 255
-0.08885026 0.098020278 0.034934547 0 0 0 255
-0.08818832 0.098270774 0.034782317 0 0 0 255
-0.087566838 0.098505482 0.03460088 0 0 0 255
-0.086975306 0.098727167 0.034399003 0 0 0 255
-0.086407959 0.098938972 0.034179874 0 0 0 255
-0.085889645 0.099129751 0.033924513 0 0 0 255
-0.085293651 0.099354111 0.033725459 0 0 0 255
-0.084791578 0.099537909 0.033459511 0 0 0 255
-0.084310085 0.09971422 0.033179644 0 0 0 255
-0.083840981 0.09988495 0.032890283 0 0 0 255
-0.083412811 0.10003866 0.032572221 0 0 0 255
-0.082970619 0.10019748 0.032264017 0 0 0 255
-0.082585603 0.10033335 0.031915154 0 0 0 255
-0.082140714 0.10049421 0.031608544 0 0 0 255
-0.081833236 0.10059761 0.03120424 0 0 0 255
-0.08144027 0.10073636 0.030862033 0 0 0 255
-0.081055254 0.10087224 0.030513169 0 0 0 255
-0.080579609 0.10104535 0.030227873 0 0 0 255
-0.080151439 0.10119907 0.02990981 0 0 0 255
-0.079736494 0.1013469 0.029582759 0 0 0 255
-0.079346217 0.10148467 0.029237591 0 0 0 255
-0.078983657 0.10161132 0.028872712 0 0 0 255
-0.078636535 0.10173126 0.028496739 0 0 0 255
-0.078319356 0.10183819 0.028100327 0 0 0 255
-0.077991173 0.10195019 0.027710801 0 0 0 255
-0.077699952 0.10204661 0.027295906 0 0 0 255
-0.07740441 0.1021446 0.026882973 0 0 0 255
-0.077137858 0.10223097 0.026449962 0 0 0 255
-0.076838337 0.10233039 0.02604036 0 0 0 255
-0.076544553 0.10242775 0.025626194 0 0 0 255
-0.076272145 0.10251731 0.025198612 0 0 0 255
-0.075999051 0.10260607 0.024769662 0 0 0 255
-0.075755894 0.1026818 0.024320267 0 0 0 255
-0.075495899 0.10276578 0.023883194 0 0 0 255
-0.075251803 0.10284291 0.023434166 0 0 0 255
-0.075020462 0.10291435 0.022977011 0 0 0 255
-0.074815199 0.10297415 0.022500511 0 0 0 255
-0.074614733 0.10303329 0.022019815 0 0 0 255
-0.074440219 0.10308083 0.021522004 0 0 0 255
-0.074318103 0.1031072 0.020986363 0 0 0 255
-0.074127689 0.1031616 0.020500505 0 0 0 255
-0.073984519 0.10319562 0.019979648 0 0 0 255
-0.073834226 0.10323329 0.019464588 0 0 0 255
-0.073661469 0.1032802 0.018965544 0 0 0 255
-0.073471174 0.10333456 0.018477457 0 0 0 255
-0.073303677 0.10337956 0.017974716 0 0 0 255
-0.073160395 0.10341468 0.017454727 0 0 0 255
-0.07303746 0.10344026 0.016919952 0 0 0 255
-0.072899908 0.10347331 0.016395401 0 0 0 255
-0.072823636 0.10347979 0.01582736 0 0 0 255
-0.072745137 0.10348707 0.015261417 0 0 0 255
-0.072669685 0.10349432 0.014692512 0 0 0 255
-0.072652817 0.10347598 0.014083081 0 0 0 255
-0.072612688 0.10346717 0.013489165 0 0 0 255
-0.072650783 0.10342669 0.012841174 0 0 0 255
-0.072739638 0.10336457 0.01215572 0 0 0 255
-0.072834574 0.10330021 0.01146707 0 0 0 255
-0.07286261 0.1032634 0.010825605 0 0 0 255
-0.072995566 0.10318202 0.010108983 0 0 0 255
-0.073129326 0.10310141 0.0093914941 0 0 0 255
-0.073186368 0.10305299 0.0087299505 0 0 0 255
-0.073412172 0.10293356 0.0079476619 0 0 0 255
-0.073430628 0.10290023 0.0073118554 0 0 0 255
-0.073503576 0.10284495 0.0066383574 0 0 0 255
-0.073478289 0.10283075 0.0060350876 0 0 0 255
-0.073412076 0.10283356 0.0054605193 0 0 0 255
-0.073370188 0.10282539 0.0048678368 0 0 0 255
-0.073283739 0.10283663 0.00430719 0 0 0 255
-0.073295534 0.10280681 0.0036763139 0 0 0 255
-0.073211774 0.10281601 0.003114067 0 0 0 255
-0.073064506 0.10285257 0.0025974084 0 0 0 255
-0.072767548 0.10295214 0.0021857088 0 0 0 255
-0.072282672 0.10312861 0.001907438 0 0 0 255
-0.071931578 0.10325002 0.0015347982 0 0 0 255
-0.071783498 0.10328689 0.0010176394 0 0 0 255
-0.071695298 0.10329878 0.00045822375 0 0 0 255
-0.07161364 0.10330827 -0.00010525342 0 0 0 255
-0.065796047 0.10553525 -0.00095524918 0 0 0 255
-0.065129191 0.1057886 -0.001103784 0 0 0 255
-0.064528063 0.10601376 -0.0013000052 0 0 0 255
-0.0640999 0.10616747 -0.0016180668 0 0 0 255
-0.063840367 0.10625129 -0.0020560073 0 0 0 255
-0.055520155 0.10969772 0.0032238485 0 0 0 255
-0.054652505 0.11003479 0.0032177342 0 0 0 255
-0.053715736 0.11040128 0.003259538 0 0 0 255
-0.052353166 0.11094402 0.0036047986 0 0 0 255
-0.051138058 0.11142671 0.0038444665 0 0 0 255
-0.050255563 0.11176918 0.0038477094 0 0 0 255
-0.049317382 0.11213618 0.0038921107 0 0 0 255
-0.048477571 0.11246099 0.0038654171 0 0 0 255
-0.047780305 0.11272755 0.0037381938 0 0 0 255
-0.047135901 0.11297166 0.0035736414 0 0 0 255
-0.046641313 0.11315273 0.0033018983 0 0 0 255
-0.046202622 0.11331026 0.0029912286 0 0 0 255
-0.04571984 0.11348704 0.0027117271 0 0 0 255
-0.04516666 0.11369263 0.0024818745 0 0 0 255
-0.044544708 0.11392751 0.0023013051 0 0 0 255
-0.043961588 0.11414506 0.0020932641 0 0 0 255
-0.043388058 0.11436019 0.0018781966 0 0 0 255
-0.042861775 0.11455386 0.0016294969 0 0 0 255
-0.04235654 0.11473988 0.0013660123 0 0 0 255
-0.041890483 0.11490951 0.0010750558 0 0 0 255
-0.041416124 0.11508215 0.00078939379 0 0 0 255
-0.041024096 0.11522057 0.00044545796 0 0 0 255
-0.04056073 0.11538922 0.0001515373 0 0 0 255
-0.040081114 0.11556378 -0.00013042853 0 0 0 255
-0.039626855 0.11572912 -0.00042914355 0 0 0 255
-0.039141979 0.11590559 -0.00070741307 0 0 0 255
-0.038717315 0.11605801 -0.0010279394 0 0 0 255
-0.038334519 0.11619309 -0.0013789015 0 0 0 255
-0.037940744 0.11633215 -0.0017216055 0 0 0 255
-0.037560515 0.11646628 -0.0020733001 0 0 0 255
-0.037228361 0.11657972 -0.0024594925 0 0 0 255
-0.036905106 0.11668885 -0.0028527116 0 0 0 255
-0.036586978 0.11679719 -0.0032487609 0 0 0 255
-0.036280915 0.11689901 -0.0036543007 0 0 0 255
-0.036005944 0.11698951 -0.0040811519 0 0 0 255
-0.035700694 0.11709103 -0.004486192 0 0 0 255
-0.035430171 0.11717885 -0.0049158735 0 0 0 255
-0.03518128 0.11725772 -0.005362072 0 0 0 255
-0.034932747 0.11733647 -0.0058069043 0 0 0 255
-0.034705374 0.11740646 -0.0062673874 0 0 0 255
-0.034473684 0.11747801 -0.0067259069 0 0 0 255
-0.034340575 0.11750837 -0.0072532888 0 0 0 255
-0.034216233 0.11753552 -0.0077868309 0 0 0 255
-0.034113877 0.11755364 -0.0083355233 0 0 0 255
-0.034004629 0.11757317 -0.0088801552 0 0 0 255
-0.033886023 0.11759826 -0.0094182594 0 0 0 255
-0.033803549 0.11760698 -0.0099808713 0 0 0 255
-0.033700842 0.11762521 -0.010530931 0 0 0 255
-0.033577785 0.11765191 -0.011064839 0 0 0 255
-0.033477314 0.11766826 -0.01161563 0 0 0 255
-0.033315547 0.11771117 -0.012122933 0 0 0 255
-0.03318958 0.11773787 -0.012656109 0 0 0 255
-0.033023838 0.11778223 -0.013160082 0 0 0 255
-0.032820672 0.11784233 -0.013637814 0 0 0 255
-0.032708265 0.11786409 -0.01417998 0 0 0 255
-0.032587089 0.11788903 -0.014715986 0 0 0 255
-0.0324976 0.11790138 -0.015275037 0 0 0 255
-0.032408457 0.11791361 -0.01583272 0 0 0 255
-0.032378849 0.11790098 -0.016434027 0 0 0 255
-0.032405142 0.11786481 -0.017074261 0 0 0 255
-0.032389089 0.11784723 -0.017684557 0 0 0 255
-0.032463916 0.1177902 -0.018360155 0 0 0 255
-0.032485288 0.11775689 -0.018996691 0 0 0 255
-0.032545961 0.11770607 -0.019661568 0 0 0 255
-0.032655522 0.11763534 -0.020361807 0 0 0 255
-0.032747414 0.11757209 -0.021048857 0 0 0 255
-0.032791369 0.11752843 -0.021702277 0 0 0 255
-0.032866068 0.1174725 -0.02237701 0 0 0 255
-0.033002056 0.11739001 -0.023095228 0 0 0 255
-0.03298074 0.11737436 -0.02370183 0 0 0 255
-0.032909736 0.11737893 -0.024273567 0 0 0 255
-0.032840006 0.11738302 -0.024845671 0 0 0 255
-0.0086566806 0.12737556 -0.010260681 0 0 0 255
-0.0081703924 0.12755361 -0.010537719 0 0 0 255
-0.0074380841 0.12783398 -0.010649729 0 0 0 255
-0.0066648498 0.12813243 -0.010734402 0 0 0 255
-0.00616372 0.12831588 -0.011002081 0 0 0 255
-0.0058066361 0.12844053 -0.011367061 0 0 0 255
-0.005470261 0.12855551 -0.011745459 0 0 0 255
-0.0051606484 0.12865968 -0.012141839 0 0 0 255
-0.017628726 0.12335455 -0.023386067 0 0 0 255
-0.0098342188 0.12648194 -0.020966902 0 0 0 255
-0.0092246681 0.12671123 -0.021156963 0 0 0 255
-0.0085714981 0.12695855 -0.021315355 0 0 0 255
-0.00795177 0.12719262 -0.021498024 0 0 0 255
-0.0074839555 0.12736289 -0.021787748 0 0 0 255
-0.0070178956 0.12753251 -0.022078702 0 0 0 255
-0.0065180436 0.1277155 -0.02234675 0 0 0 255
-0.0058992617 0.12794816 -0.022529783 0 0 0 255
-0.005392272 0.12813482 -0.022792036 0 0 0 255
-0.0048958026 0.12831764 -0.023061682 0 0 0 255
-0.0044593364 0.12847437 -0.023374449 0 0 0 255
-0.0039932765 0.12864399 -0.023665408 0 0 0 255
-0.0035585649 0.12880006 -0.023979405 0 0 0 255
-0.0031211562 0.12895714 -0.024290442 0 0 0 255
-0.0027246848 0.12909825 -0.024631547 0 0 0 255
-0.0022735894 0.12926137 -0.024932727 0 0 0 255
-0.0018626116 0.12940775 -0.025263108 0 0 0 255
-0.0014693029 0.12954664 -0.025606679 0 0 0 255
-0.0011116602 0.12967043 -0.025975255 0 0 0 255
-0.00073891878 0.12980184 -0.026332745 0 0 0 255
-0.00040501356 0.12991591 -0.026717706 0 0 0 255
-0.00010420755 0.13001582 -0.027126942 0 0 0 255
0.00018924102 0.13011305 -0.027539739 0 0 0 255
0.00044573471 0.13019577 -0.027979279 0 0 0 255
0.0007430315 0.13029438 -0.028390978 0 0 0 255
0.0011407882 0.13043489 -0.028730353 0 0 0 255
0.0015111752 0.13056438 -0.029090805 0 0 0 255
0.0018240437 0.1306708 -0.029490549 0 0 0 255
0.0021081232 0.13076355 -0.029911241 0 0 0 255
0.0023768917 0.13085073 -0.030342154 0 0 0 255
0.0026356131 0.13093425 -0.030779593 0 0 0 255
0.0028386526 0.13099325 -0.031258192 0 0 0 255
0.0030193627 0.13104412 -0.031751942 0 0 0 255
0.0031537525 0.13107495 -0.032278959 0 0 0 255
0.0032925978 0.13110739 -0.032801781 0 0 0 255
0.0034217276 0.13113628 -0.033332489 0 0 0 255
0.0035116822 0.13114882 -0.033890676 0 0 0 255
0.0035488978 0.13114001 -0.034485318 0 0 0 255
0.0035938248 0.13113295 -0.035076406 0 0 0 255
0.0036084689 0.1311138 -0.035687935 0 0 0 255
0.0036835819 0.13112092 -0.036255475 0 0 0 255
0.0037171654 0.13110973 -0.036853448 0 0 0 255
0.0037705116 0.13110679 -0.037438374 0 0 0 255
0.003780365 0.1310859 -0.038052734 0 0 0 255
0.0038293898 0.1310814 -0.03863962 0 0 0 255
0.0039276481 0.13109694 -0.039192509 0 0 0 255
0.0039691851 0.13108972 -0.039785191 0 0 0 255
0.0040437058 0.13109556 -0.040354464 0 0 0 255
0.0041288696 0.13110633 -0.040915482 0 0 0 255
0.0042689927 0.13113925 -0.041437931 0 0 0 255
0.0044465363 0.1311879 -0.041934144 0 0 0 255
0.0046805814 0.13126136 -0.042389702 0 0 0 255
0.0095043071 0.13324901 -0.039591011 0 0 0 255
0.010719407 0.13373064 -0.039349981 0 0 0 255
0.011534546 0.13404539 -0.039394788 0 0 0 255
0.012271456 0.1343285 -0.039493669 0 0 0 255
0.012976211 0.13459776 -0.039615102 0 0 0 255
0.013468578 0.13477802 -0.039888948 0 0 0 255
0.014022697 0.13498396 -0.040117063 0 0 0 255
0.01446981 0.13514563 -0.040421575 0 0 0 255
0.014847681 0.13527784 -0.04077623 0 0 0 255
0.015184283 0.13539396 -0.041159596 0 0 0 255
0.015445098 0.13547719 -0.041595802 0 0 0 255
0.015707664 0.13556209 -0.042032141 0 0 0 255
0.016036309 0.13567427 -0.042420801 0 0 0 255
0.016337585 0.13577434 -0.042829171 0 0 0 255
0.016567998 0.13584544 -0.043288056 0 0 0 255
0.016783901 0.13591017 -0.043756299 0 0 0 255
0.016861584 0.13591823 -0.044323109 0 0 0 255
0.016901713 0.13590942 -0.044917017 0 0 0 255
0.016907588 0.13588709 -0.045534708 0 0 0 255
0.016867615 0.13584487 -0.046184801 0 0 0 255
0.0167652 0.1357778 -0.046879243 0 0 0 255
