ply
format ascii 1.0
comment PCL generated
element vertex 1030
property float x
property float y
property float z
property uchar red
property uchar green
property uchar blue
property uchar alpha
element camera 0
property float view_px
property float view_py
property float view_pz
property float x_axisx
property float x_axisy
property float x_axisz
property float y_axisx
property float y_axisy
property float y_axisz
property float z_axisx
property float z_axisy
property float z_axisz
property float focal
property float scalex
property float scaley
property float centerx
property float centery
property int viewportx
property int viewporty
property float k1
property float k2
end_header
-0.11494099 0.12740712 0.019266762 0 0 0 255
-0.11459301 0.12753163 0.018892894 0 0 0 255
-0.11429588 0.12763767 0.018483289 0 0 0 255
-0.11399923 0.12774351 0.018072821 0 0 0 255
-0.1138127 0.12780713 0.017586101 0 0 0 255
-0.11350505 0.12791698 0.017183885 0 0 0 255
-0.11318911 0.12802982 0.016786974 0 0 0 255
-0.11269067 0.12821124 0.016517695 0 0 0 255
-0.11239705 0.12831597 0.01610563 0 0 0 255
-0.11204907 0.1284405 0.015731758 0 0 0 255
-0.11178141 0.12853472 0.01530121 0 0 0 255
-0.11117096 0.12875901 0.015111648 0 0 0 255
-0.097721964 0.13384014 0.023917671 0 0 0 255
-0.096886002 0.13414973 0.023885684 0 0 0 255
-0.095935591 0.13450201 0.02393328 0 0 0 255
-0.094745502 0.13494578 0.024149172 0 0 0 255
-0.093534388 0.13539726 0.024379851 0 0 0 255
-0.092743203 0.13568944 0.024316695 0 0 0 255
-0.091809861 0.13603553 0.024352839 0 0 0 255
-0.091019481 0.13632852 0.024288818 0 0 0 255
-0.09036392 0.13656925 0.024130426 0 0 0 255
-0.089557767 0.13686797 0.024077492 0 0 0 255
-0.088857889 0.13712589 0.023949401 0 0 0 255
-0.088099688 0.13740504 0.023862839 0 0 0 255
-0.087390438 0.13766743 0.02374264 0 0 0 255
-0.086754635 0.13790096 0.02356983 0 0 0 255
-0.086181141 0.13811076 0.02335353 0 0 0 255
-0.085723847 0.13827719 0.023056414 0 0 0 255
-0.085349098 0.13841251 0.022700522 0 0 0 255
-0.085077465 0.1385082 0.022273304 0 0 0 255
-0.084848382 0.13858837 0.02181565 0 0 0 255
-0.084684648 0.13864371 0.021312911 0 0 0 255
-0.084566638 0.13868135 0.02077727 0 0 0 255
-0.084464401 0.13871323 0.020230543 0 0 0 255
-0.084422253 0.13872218 0.019642422 0 0 0 255
-0.084276065 0.13877113 0.019127361 0 0 0 255
-0.08409223 0.13883381 0.018637676 0 0 0 255
-0.083763063 0.13895147 0.018251115 0 0 0 255
-0.083329037 0.13910942 0.017937114 0 0 0 255
-0.082911268 0.13926041 0.017612526 0 0 0 255
-0.082366288 0.13945983 0.017375648 0 0 0 255
-0.081752814 0.13968526 0.017187687 0 0 0 255
-0.081149384 0.13990699 0.016993197 0 0 0 255
-0.08065398 0.14008731 0.01672232 0 0 0 255
-0.080177873 0.14026059 0.01643789 0 0 0 255
-0.079726309 0.14042495 0.016136214 0 0 0 255
-0.079284795 0.14058563 0.015828008 0 0 0 255
-0.078911453 0.1407194 0.015470884 0 0 0 255
-0.078523017 0.14085969 0.015126215 0 0 0 255
-0.078168839 0.14098753 0.014756406 0 0 0 255
-0.077838399 0.14110567 0.014370214 0 0 0 255
-0.077520706 0.14121917 0.013974531 0 0 0 255
-0.077204287 0.14133219 0.013578481 0 0 0 255
-0.076884829 0.14144634 0.01318403 0 0 0 255
-0.076599173 0.14154711 0.01276667 0 0 0 255
-0.076265693 0.14166637 0.012382075 0 0 0 255
-0.075954534 0.14177747 0.011982329 0 0 0 255
-0.075622335 0.14189626 0.011597369 0 0 0 255
-0.075292237 0.14201534 0.011211176 0 0 0 255
-0.074934676 0.14214335 0.010842965 0 0 0 255
-0.074634045 0.14225064 0.010435827 0 0 0 255
-0.074329436 0.14235939 0.01003202 0 0 0 255
-0.073983207 0.14248323 0.0096569145 0 0 0 255
-0.073710762 0.14257921 0.0092291981 0 0 0 255
-0.073326305 0.14271809 0.0088811992 0 0 0 255
-0.072996333 0.14283606 0.0084941406 0 0 0 255
-0.072635137 0.14296645 0.0081292596 0 0 0 255
-0.072345965 0.14306849 0.0077143637 0 0 0 255
-0.072047554 0.14317499 0.0073051266 0 0 0 255
-0.071750894 0.14328083 0.0068946593 0 0 0 255
-0.071437523 0.14339277 0.006497012 0 0 0 255
-0.071111061 0.14350946 0.0061074882 0 0 0 255
-0.070789374 0.14362438 0.0057151355 0 0 0 255
-0.070470743 0.14373823 0.0053211842 0 0 0 255
-0.070213601 0.14382863 0.0048832446 0 0 0 255
-0.06988316 0.14394677 0.0044970522 0 0 0 255
-0.06954968 0.14406601 0.0041124579 0 0 0 255
-0.069351345 0.14413396 0.0036334931 0 0 0 255
-0.069104731 0.14422052 0.0031881607 0 0 0 255
-0.068854474 0.14430946 0.0027461583 0 0 0 255
-0.068668418 0.14437293 0.002258569 0 0 0 255
-0.068484113 0.14443573 0.0017697481 0 0 0 255
-0.056045443 0.1488118 -0.019791136 0 0 0 255
-0.055749256 0.14891641 -0.020201106 0 0 0 255
-0.055544719 0.14898765 -0.020676006 0 0 0 255
-0.055389412 0.14903885 -0.021184906 0 0 0 255
-0.055200189 0.14910454 -0.02167003 0 0 0 255
-0.054947026 0.14919348 -0.022111302 0 0 0 255
-0.054303735 0.14942974 -0.022278316 0 0 0 255
-0.053271592 0.14981391 -0.022172812 0 0 0 255
-0.052756906 0.15000123 -0.022430137 0 0 0 255
-0.052070599 0.15025422 -0.022567218 0 0 0 255
-0.051488675 0.15046814 -0.022777356 0 0 0 255
-0.050904661 0.15068176 -0.022986263 0 0 0 255
-0.050468408 0.15084055 -0.023298167 0 0 0 255
-0.050138436 0.15095852 -0.023685224 0 0 0 255
-0.049894851 0.15104397 -0.024132155 0 0 0 255
-0.049700029 0.15111062 -0.024613583 0 0 0 255
-0.04939191 0.15122063 -0.025014928 0 0 0 255
-0.048997406 0.15136315 -0.025356399 0 0 0 255
-0.048252746 0.15163843 -0.02545332 0 0 0 255
-0.047520842 0.151908 -0.025558367 0 0 0 255
-0.046608068 0.15224661 -0.025536142 0 0 0 255
-0.045925729 0.15249814 -0.025676554 0 0 0 255
-0.045348257 0.15270939 -0.025889523 0 0 0 255
-0.04496029 0.15284951 -0.026235057 0 0 0 255
-0.044625398 0.15297034 -0.026618419 0 0 0 255
-0.044383235 0.15305424 -0.027066583 0 0 0 255
-0.044156369 0.15313359 -0.027526334 0 0 0 255
-0.043813653 0.15325619 -0.027903903 0 0 0 255
-0.043377876 0.15341482 -0.028216671 0 0 0 255
-0.042692371 0.15366751 -0.02835325 0 0 0 255
-0.042061828 0.15389912 -0.028529756 0 0 0 255
-0.041324995 0.15417156 -0.028631106 0 0 0 255
-0.040631667 0.15442711 -0.028763259 0 0 0 255
-0.039900225 0.15469649 -0.028869171 0 0 0 255
-0.039366595 0.15489177 -0.029112943 0 0 0 255
-0.038965542 0.15503669 -0.029450353 0 0 0 255
-0.03860914 0.15516533 -0.029818064 0 0 0 255
-0.038321719 0.15526675 -0.030234192 0 0 0 255
-0.038054533 0.1553608 -0.030665606 0 0 0 255
-0.037708186 0.15548579 -0.031039843 0 0 0 255
-0.037273809 0.15564284 -0.031353842 0 0 0 255
-0.036668621 0.15586522 -0.031547099 0 0 0 255
-0.036013868 0.15610671 -0.031706356 0 0 0 255
-0.03536053 0.15634663 -0.031866848 0 0 0 255
-0.034749269 0.15657122 -0.032056909 0 0 0 255
-0.034190618 0.15677561 -0.032282561 0 0 0 255
-0.033625893 0.15698223 -0.032505024 0 0 0 255
-0.033106282 0.1571724 -0.032758649 0 0 0 255
-0.032688983 0.15732321 -0.033084109 0 0 0 255
-0.032361105 0.15744148 -0.033472396 0 0 0 255
-0.032025874 0.15756138 -0.033855759 0 0 0 255
-0.031752944 0.15765752 -0.03428261 0 0 0 255
-0.031437345 0.15777026 -0.034678161 0 0 0 255
-0.031123627 0.15788232 -0.035077173 0 0 0 255
-0.030775651 0.15800683 -0.035451047 0 0 0 255
-0.030462272 0.15811875 -0.035848692 0 0 0 255
-0.029970847 0.15829761 -0.0361229 0 0 0 255
-0.029112432 0.15861644 -0.03613887 0 0 0 255
-0.02824714 0.15893668 -0.03615078 0 0 0 255
-0.027610857 0.15917037 -0.03632272 0 0 0 255
-0.02706366 0.1593706 -0.036557503 0 0 0 255
-0.026575278 0.15954834 -0.036833309 0 0 0 255
-0.026261903 0.15966028 -0.037230954 0 0 0 255
-0.025970507 0.15976423 -0.037645124 0 0 0 255
-0.025688812 0.15986353 -0.03806581 0 0 0 255
-0.025472008 0.15993926 -0.038532089 0 0 0 255
-0.025241982 0.1600198 -0.038988013 0 0 0 255
-0.025059901 0.16008179 -0.039478928 0 0 0 255
-0.024883427 0.16014178 -0.039972179 0 0 0 255
-0.13416259 0.12161909 0.065041855 0 0 0 255
-0.13378105 0.1217569 0.064694494 0 0 0 255
-0.13332948 0.12192017 0.064394183 0 0 0 255
-0.13308728 0.12200406 0.063954085 0 0 0 255
-0.11354426 0.12911268 0.051703308 0 0 0 255
-0.11333011 0.12918527 0.051244855 0 0 0 255
-0.12783776 0.12365609 0.040068269 0 0 0 255
-0.12758049 0.12374758 0.039631195 0 0 0 255
-0.1271273 0.12391147 0.039329883 0 0 0 255
-0.12680691 0.12402595 0.038937159 0 0 0 255
-0.1264905 0.12413897 0.038541112 0 0 0 255
-0.12620261 0.12424163 0.038124487 0 0 0 255
-0.12594149 0.12433346 0.037689872 0 0 0 255
-0.12570541 0.12441622 0.037237152 0 0 0 255
-0.12550613 0.12448555 0.036758553 0 0 0 255
-0.12716705 0.12383316 0.033124648 0 0 0 255
-0.12697397 0.12389916 0.032641988 0 0 0 255
-0.12656766 0.12404598 0.032308273 0 0 0 255
-0.12624936 0.12416076 0.031914324 0 0 0 255
-0.12597914 0.12425592 0.031484503 0 0 0 255
-0.12557364 0.12440245 0.031151293 0 0 0 255
-0.12518217 0.12454386 0.030808222 0 0 0 255
-0.12468898 0.12472337 0.030535245 0 0 0 255
-0.12418692 0.12490715 0.030269299 0 0 0 255
-0.12372261 0.12507614 0.029977113 0 0 0 255
-0.12328473 0.12523445 0.029665578 0 0 0 255
-0.1229371 0.12535991 0.029291701 0 0 0 255
-0.12253253 0.12550607 0.028956756 0 0 0 255
-0.12222442 0.1256161 0.028555412 0 0 0 255
-0.12192075 0.12572449 0.028149877 0 0 0 255
-0.12159254 0.12584183 0.027761586 0 0 0 255
-0.12123437 0.12597114 0.027395103 0 0 0 255
-0.12095923 0.12606806 0.026970353 0 0 0 255
-0.12064153 0.12618156 0.026574668 0 0 0 255
-0.12027157 0.12631515 0.026215948 0 0 0 255
-0.11992009 0.12644096 0.025844542 0 0 0 255
-0.11958823 0.12656067 0.025459576 0 0 0 255
-0.11929649 0.12666364 0.025045414 0 0 0 255
-0.11897656 0.12677796 0.024651829 0 0 0 255
-0.11866717 0.12688845 0.024250854 0 0 0 255
-0.11832655 0.12701136 0.023872051 0 0 0 255
-0.11794654 0.12714861 0.023519855 0 0 0 255
-0.1177184 0.12722738 0.023061838 0 0 0 255
-0.11738607 0.12734726 0.022677746 0 0 0 255
-0.11708942 0.1274531 0.022267275 0 0 0 255
-0.11674015 0.12757811 0.02189377 0 0 0 255
-0.11642151 0.12769194 0.021499816 0 0 0 255
-0.11603752 0.12783062 0.021150954 0 0 0 255
-0.11575793 0.12793025 0.020729028 0 0 0 255
-0.11552979 0.12800904 0.020271011 0 0 0 255
-0.11518264 0.12813433 0.019896276 0 0 0 255
-0.11479864 0.12827301 0.01954741 0 0 0 255
-0.1144717 0.12838988 0.019158754 0 0 0 255
-0.11419258 0.12848935 0.018735964 0 0 0 255
-0.11398548 0.12856047 0.018263161 0 0 0 255
-0.11370367 0.1286609 0.017843332 0 0 0 255
-0.11333067 0.12879559 0.017486215 0 0 0 255
-0.11311959 0.12886816 0.017016739 0 0 0 255
-0.11264699 0.12904017 0.016729845 0 0 0 255
-0.11237967 0.12913533 0.016299296 0 0 0 255
-0.11204922 0.12925345 0.015913105 0 0 0 255
-0.11166921 0.12939072 0.01556091 0 0 0 255
-0.1112913 0.1295272 0.015208848 0 0 0 255
-0.097168341 0.13484615 0.023866702 0 0 0 255
-0.096193388 0.13520737 0.023931548 0 0 0 255
-0.094863832 0.13570298 0.024245143 0 0 0 255
-0.093747869 0.13611872 0.024409788 0 0 0 255
-0.092828214 0.13645877 0.024436073 0 0 0 255
-0.091936477 0.13678969 0.024443513 0 0 0 255
-0.091038331 0.13712192 0.024454148 0 0 0 255
-0.090371303 0.13736787 0.024303515 0 0 0 255
-0.089663476 0.13762869 0.024182087 0 0 0 255
-0.088860489 0.13792521 0.024126688 0 0 0 255
-0.088148341 0.13818759 0.024007222 0 0 0 255
-0.087489262 0.1384296 0.023851294 0 0 0 255
-0.086923122 0.13863778 0.023630068 0 0 0 255
-0.086410195 0.13882446 0.02337151 0 0 0 255
-0.086009949 0.13896908 0.023034601 0 0 0 255
-0.08568605 0.13908589 0.022642981 0 0 0 255
-0.085440718 0.13917197 0.022197282 0 0 0 255
-0.085261203 0.13923307 0.021705631 0 0 0 255
-0.085149735 0.13926831 0.021165928 0 0 0 255
-0.085036039 0.13930544 0.020626957 0 0 0 255
-0.084901646 0.13935009 0.020104138 0 0 0 255
-0.084780127 0.13938901 0.019570962 0 0 0 255
-0.084575593 0.13946025 0.01909606 0 0 0 255
-0.084366269 0.13953216 0.018625354 0 0 0 255
-0.083961584 0.13967946 0.018291276 0 0 0 255
-0.083438121 0.13986997 0.018040109 0 0 0 255
-0.082863688 0.14008118 0.017824177 0 0 0 255
-0.082050182 0.14038152 0.017776173 0 0 0 255
-0.08150731 0.14058016 0.017539427 0 0 0 255
-0.081027687 0.14075473 0.017257461 0 0 0 255
-0.080600336 0.14090921 0.016938534 0 0 0 255
-0.080219857 0.14104663 0.016587207 0 0 0 255
-0.07986217 0.14117575 0.016219858 0 0 0 255
-0.079512902 0.14130072 0.015846355 0 0 0 255
-0.079177544 0.14142171 0.015463857 0 0 0 255
-0.078865916 0.14153302 0.015064978 0 0 0 255
-0.078603521 0.14162533 0.014630734 0 0 0 255
-0.07829459 0.14173566 0.01422889 0 0 0 255
-0.077986464 0.14184564 0.013827546 0 0 0 255
-0.077689342 0.14195165 0.013417944 0 0 0 255
-0.077334359 0.14207874 0.013049002 0 0 0 255
-0.077025421 0.14218904 0.012647158 0 0 0 255
-0.076698959 0.14230572 0.012257635 0 0 0 255
-0.076394349 0.14241447 0.011853827 0 0 0 255
-0.076038882 0.14254278 0.011484384 0 0 0 255
-0.075736023 0.14265087 0.011079344 0 0 0 255
-0.075412601 0.14276648 0.010688223 0 0 0 255
-0.075096652 0.14287932 0.010291308 0 0 0 255
-0.074819751 0.14297692 0.0098677874 0 0 0 255
-0.074551158 0.14307255 0.0094376039 0 0 0 255
-0.074287005 0.1431655 0.0090045938 0 0 0 255
-0.073968366 0.14327934 0.0086106416 0 0 0 255
-0.073701516 0.14337432 0.0081792288 0 0 0 255
-0.073463663 0.14345771 0.0077277361 0 0 0 255
-0.073247328 0.1435322 0.0072619575 0 0 0 255
-0.072995797 0.14362161 0.006820322 0 0 0 255
-0.072713636 0.1437211 0.0064004962 0 0 0 255
-0.072096646 0.1439478 0.0062149996 0 0 0 255
-0.07171616 0.14408521 0.0058636712 0 0 0 255
-0.071239583 0.14425868 0.0055801077 0 0 0 255
-0.070864365 0.14439417 0.0052250819 0 0 0 255
-0.070519075 0.14451772 0.0048482465 0 0 0 255
-0.070131116 0.14465787 0.0045027127 0 0 0 255
-0.069804646 0.14477454 0.0041131894 0 0 0 255
-0.069542587 0.14486778 0.0036789463 0 0 0 255
-0.069230966 0.14497909 0.0032800669 0 0 0 255
-0.068947993 0.14507888 0.0028597419 0 0 0 255
-0.068742521 0.14515047 0.0023865714 0 0 0 255
-0.068552956 0.14521521 0.0019014468 0 0 0 255
-0.068240047 0.14532697 0.001502933 0 0 0 255
-0.067946427 0.1454317 0.0010908665 0 0 0 255
-0.067738853 0.14550406 0.00061756233 0 0 0 255
-0.067460679 0.14560212 0.00019440753 0 0 0 255
-0.067169622 0.14570589 -0.00021839095 0 0 0 255
-0.055778809 0.14971228 -0.020659756 0 0 0 255
-0.055689543 0.14974053 -0.021213744 0 0 0 255
-0.055470161 0.14981611 -0.021677922 0 0 0 255
-0.055239797 0.14989677 -0.022135213 0 0 0 255
-0.052985143 0.15072906 -0.022408459 0 0 0 255
-0.052460745 0.15092097 -0.022659257 0 0 0 255
-0.051951315 0.1511064 -0.022920277 0 0 0 255
-0.051344853 0.15132926 -0.023113167 0 0 0 255
-0.050863013 0.15150464 -0.023393035 0 0 0 255
-0.050528586 0.15162528 -0.023777265 0 0 0 255
-0.050272737 0.1517152 -0.024215572 0 0 0 255
-0.050057683 0.15179029 -0.024683081 0 0 0 255
-0.049843095 0.15186413 -0.02515009 0 0 0 255
-0.049575776 0.1519593 -0.025580637 0 0 0 255
-0.049049281 0.15215093 -0.025830202 0 0 0 255
-0.048234366 0.15245284 -0.025876977 0 0 0 255
-0.047283482 0.15280528 -0.025828514 0 0 0 255
-0.046661235 0.15303391 -0.026010312 0 0 0 255
-0.045967903 0.15328944 -0.026142465 0 0 0 255
-0.0454075 0.15349448 -0.026366889 0 0 0 255
-0.045023512 0.15363316 -0.026715754 0 0 0 255
-0.044773392 0.153721 -0.027158622 0 0 0 255
-0.044569321 0.15379207 -0.02763439 0 0 0 255
-0.044315219 0.15388137 -0.028073929 0 0 0 255
-0.043991797 0.15399697 -0.028465051 0 0 0 255
-0.043414325 0.1542082 -0.028678019 0 0 0 255
-0.04267621 0.15448108 -0.028779004 0 0 0 255
-0.04206799 0.15470459 -0.028970659 0 0 0 255
-0.041341349 0.15497226 -0.029079404 0 0 0 255
-0.04058839 0.15524949 -0.029169664 0 0 0 255
-0.040004715 0.15546405 -0.029378571 0 0 0 255
-0.039429471 0.15567447 -0.029593639 0 0 0 255
-0.039029703 0.15581891 -0.029931415 0 0 0 255
-0.038704522 0.15593514 -0.030321304 0 0 0 255
-0.038438961 0.15602966 -0.030753084 0 0 0 255
-0.038174808 0.15612262 -0.031186096 0 0 0 255
-0.03789825 0.15622112 -0.031609617 0 0 0 255
-0.037430901 0.15639123 -0.031900205 0 0 0 255
-0.036791593 0.15662605 -0.032070555 0 0 0 255
-0.036059219 0.15689579 -0.032174733 0 0 0 255
-0.035322852 0.15716806 -0.032276951 0 0 0 255
-0.034731828 0.15738422 -0.032480925 0 0 0 255
-0.034170143 0.15758973 -0.032704987 0 0 0 255
-0.03363651 0.15778501 -0.032948758 0 0 0 255
-0.033133619 0.15796912 -0.033215206 0 0 0 255
-0.032714099 0.15812072 -0.033538561 0 0 0 255
-0.032337122 0.15825687 -0.033892356 0 0 0 255
-0.032047 0.15836033 -0.034306888 0 0 0 255
-0.031769294 0.1584582 -0.034730908 0 0 0 255
-0.031501163 0.1585526 -0.035160586 0 0 0 255
-0.031228587 0.15864967 -0.035587441 0 0 0 255
-0.030938003 0.15875331 -0.036001101 0 0 0 255
-0.030635614 0.15886125 -0.036407009 0 0 0 255
-0.030423254 0.1589343 -0.03687612 0 0 0 255
-0.029088918 0.15943164 -0.036559697 0 0 0 255
-0.028360862 0.15970087 -0.036667205 0 0 0 255
-0.027547356 0.16000122 -0.036715209 0 0 0 255
-0.027046695 0.16018343 -0.036982387 0 0 0 255
-0.026650432 0.16032659 -0.037322629 0 0 0 255
-0.026255921 0.1604691 -0.037664101 0 0 0 255
-0.026013151 0.16055533 -0.038111903 0 0 0 255
-0.025786761 0.16063347 -0.038571149 0 0 0 255
-0.025547508 0.16071844 -0.03902141 0 0 0 255
-0.02534169 0.16078907 -0.039494582 0 0 0 255
-0.11404456 0.12972552 0.052140079 0 0 0 255
-0.1137051 0.12984695 0.051764511 0 0 0 255
-0.11334378 0.12997633 0.051403224 0 0 0 255
-0.11283482 0.13016157 0.051141337 0 0 0 255
-0.11250763 0.1302785 0.050757147 0 0 0 255
-0.12775865 0.12448515 0.03968614 0 0 0 255
-0.12733001 0.12464008 0.039367575 0 0 0 255
-0.1269736 0.12476873 0.038999867 0 0 0 255
-0.12662914 0.12489198 0.038623527 0 0 0 255
-0.12630969 0.12500612 0.038229078 0 0 0 255
-0.12606645 0.12509252 0.037782148 0 0 0 255
-0.12578301 0.12519248 0.037362687 0 0 0 255
-0.12555426 0.1252736 0.036905035 0 0 0 255
-0.12533523 0.12535013 0.036440857 0 0 0 255
-0.1264969 0.12489328 0.033773415 0 0 0 255
-0.12656698 0.12486139 0.033106443 0 0 0 255
-0.12626015 0.12497092 0.032704733 0 0 0 255
-0.12614597 0.12500823 0.03216663 0 0 0 255
-0.12598972 0.12506086 0.031658094 0 0 0 255
-0.12566629 0.12517643 0.031266976 0 0 0 255
-0.12521298 0.12534142 0.030966528 0 0 0 255
-0.1247716 0.12550101 0.030657457 0 0 0 255
-0.12409007 0.12575226 0.030517545 0 0 0 255
-0.12361572 0.1259249 0.030231884 0 0 0 255
-0.12323476 0.12606247 0.029881421 0 0 0 255
-0.12291308 0.12617743 0.029489068 0 0 0 255
-0.12251776 0.12632024 0.029147096 0 0 0 255
-0.12218065 0.12644187 0.028765831 0 0 0 255
-0.12189182 0.12654486 0.028350933 0 0 0 255
-0.12153777 0.1266716 0.027980259 0 0 0 255
-0.12119189 0.12679641 0.027605157 0 0 0 255
-0.10081854 0.1344956 0.041100387 0 0 0 255
-0.1005041 0.13460685 0.040708065 0 0 0 255
-0.10013962 0.13473739 0.040350612 0 0 0 255
-0.09981513 0.13485231 0.039964821 0 0 0 255
-0.09948267 0.13497116 0.039584324 0 0 0 255
-0.099145442 0.13509071 0.039208025 0 0 0 255
-0.098812059 0.13520992 0.038829263 0 0 0 255
-0.098575108 0.13529189 0.038385466 0 0 0 255
-0.098251902 0.13540636 0.037999306 0 0 0 255
-0.097932205 0.13551952 0.037610687 0 0 0 255
-0.097662754 0.13561437 0.037189431 0 0 0 255
-0.097315937 0.13573742 0.036818795 0 0 0 255
-0.097018093 0.13584262 0.036415886 0 0 0 255
-0.096736833 0.13594179 0.03600239 0 0 0 255
-0.096432447 0.13604939 0.035603549 0 0 0 255
-0.0961027 0.13616621 0.035221454 0 0 0 255
-0.095781118 0.13628113 0.034834933 0 0 0 255
-0.095503494 0.13637793 0.034418106 0 0 0 255
-0.095179819 0.13649252 0.034032814 0 0 0 255
-0.094944157 0.13657403 0.033588652 0 0 0 255
-0.094668165 0.1366713 0.03317146 0 0 0 255
-0.094486058 0.13673119 0.032691337 0 0 0 255
-0.094256952 0.13681033 0.03224311 0 0 0 255
-0.09394858 0.13691936 0.0318476 0 0 0 255
-0.093691066 0.13700883 0.03141772 0 0 0 255
-0.093321443 0.13714123 0.031061733 0 0 0 255
-0.093026765 0.13724636 0.030653629 0 0 0 255
-0.092686273 0.13736816 0.030273965 0 0 0 255
-0.092458934 0.1374477 0.029815078 0 0 0 255
-0.092184141 0.13754559 0.029390324 0 0 0 255
-0.091918573 0.13764012 0.028958544 0 0 0 255
-0.091586843 0.13775873 0.028572718 0 0 0 255
-0.091312513 0.13785642 0.028147098 0 0 0 255
-0.09106414 0.13794364 0.027703 0 0 0 255
-0.090832844 0.13802463 0.027247444 0 0 0 255
-0.090576977 0.13811454 0.026809139 0 0 0 255
-0.090417564 0.13816938 0.026303068 0 0 0 255
-0.09015996 0.13825996 0.025865994 0 0 0 255
-0.09008579 0.13828163 0.025299551 0 0 0 255
-0.089474052 0.1385064 0.025110357 0 0 0 255
-0.089009278 0.13867557 0.024819035 0 0 0 255
-0.088568702 0.13883591 0.024509098 0 0 0 255
-0.088093877 0.13900873 0.0242243 0 0 0 255
-0.087549731 0.13920787 0.023987923 0 0 0 255
-0.087120615 0.13936296 0.023670224 0 0 0 255
-0.086697578 0.13951586 0.023349334 0 0 0 255
-0.08636795 0.13963477 0.022962274 0 0 0 255
-0.086126596 0.13971943 0.022513246 0 0 0 255
-0.085937366 0.13978511 0.022028122 0 0 0 255
-0.085797712 0.13983166 0.021508997 0 0 0 255
-0.085628375 0.13988905 0.021008588 0 0 0 255
-0.085447453 0.13995171 0.020518169 0 0 0 255
-0.085275427 0.14001006 0.020020721 0 0 0 255
-0.085073926 0.1400802 0.019544221 0 0 0 255
-0.084761485 0.14019178 0.019144842 0 0 0 255
-0.084448114 0.14030372 0.018747194 0 0 0 255
-0.083794765 0.14054364 0.018586706 0 0 0 255
-0.083123766 0.14079106 0.018439401 0 0 0 255
-0.082395837 0.14105918 0.018331027 0 0 0 255
-0.081888631 0.14124379 0.018067908 0 0 0 255
-0.081510715 0.14138025 0.017715847 0 0 0 255
-0.081148237 0.14151113 0.017351331 0 0 0 255
-0.080815569 0.14163008 0.016967237 0 0 0 255
-0.080513179 0.141738 0.016561331 0 0 0 255
-0.080229267 0.14183919 0.016141374 0 0 0 255
-0.079932958 0.14194492 0.01573227 0 0 0 255
-0.079646014 0.14204615 0.015315276 0 0 0 255
-0.079359874 0.14214815 0.014897415 0 0 0 255
-0.079110093 0.14223696 0.014454546 0 0 0 255
-0.078810401 0.14234285 0.014047042 0 0 0 255
-0.078463234 0.14246814 0.013672305 0 0 0 255
-0.078150332 0.1425799 0.013273791 0 0 0 255
-0.077793926 0.14270854 0.01290608 0 0 0 255
-0.077442437 0.14283432 0.012534672 0 0 0 255
-0.077079959 0.1429652 0.012170157 0 0 0 255
-0.076742977 0.14308572 0.011788027 0 0 0 255
-0.07641989 0.14320225 0.011396906 0 0 0 255
-0.07610523 0.14331464 0.010999625 0 0 0 255
-0.075815111 0.14341809 0.010585095 0 0 0 255
-0.075492971 0.14353321 0.010193607 0 0 0 255
-0.075234547 0.14362408 0.0097560324 0 0 0 255
-0.075017266 0.14369996 0.0092906216 0 0 0 255
-0.074810982 0.14377186 0.0088169519 0 0 0 255
-0.07460247 0.14384456 0.0083453786 0 0 0 255
-0.074473806 0.1438871 0.0078179967 0 0 0 255
-0.074321061 0.14393845 0.0073069986 0 0 0 255
-0.074065685 0.14402823 0.0068678269 0 0 0 255
-0.073766328 0.14413503 0.0064603221 0 0 0 255
-0.073460437 0.14424425 0.0060568806 0 0 0 255
-0.073018923 0.14440493 0.0057486743 0 0 0 255
-0.072652467 0.14453724 0.0053874897 0 0 0 255
-0.072214589 0.14469557 0.0050759539 0 0 0 255
-0.071618646 0.14491458 0.0048756711 0 0 0 255
-0.071152583 0.1450842 0.0045847162 0 0 0 255
-0.070680454 0.14525604 0.0042969552 0 0 0 255
-0.070280679 0.14540048 0.0039591803 0 0 0 255
-0.069894463 0.14553998 0.0036124135 0 0 0 255
-0.06956625 0.14565732 0.0032241233 0 0 0 255
-0.069222122 0.1457815 0.002847787 0 0 0 255
-0.068970241 0.14586997 0.0024061506 0 0 0 255
-0.068692401 0.14596896 0.0019829958 0 0 0 255
-0.068423808 0.14606354 0.0015541809 0 0 0 255
-0.068111837 0.14617495 0.0011539347 0 0 0 255
-0.067873858 0.14625944 0.00070330827 0 0 0 255
-0.067595214 0.14635767 0.00028101914 0 0 0 255
-0.067288496 0.14646716 -0.00012292247 0 0 0 255
-0.067041755 0.14655484 -0.00056738919 0 0 0 255
-0.066820502 0.14663218 -0.0010294709 0 0 0 255
-0.06657739 0.14671746 -0.0014772671 0 0 0 255
-0.066377774 0.14678584 -0.0019558659 0 0 0 255
-0.066268399 0.14682142 -0.0024968004 0 0 0 255
-0.052391984 0.15175372 -0.023048049 0 0 0 255
-0.051776282 0.15197995 -0.023233911 0 0 0 255
-0.051267192 0.15216629 -0.023494931 0 0 0 255
-0.050872684 0.15230882 -0.023836404 0 0 0 255
-0.050605498 0.15240288 -0.024267819 0 0 0 255
-0.050409261 0.15247111 -0.024748016 0 0 0 255
-0.050243773 0.15252706 -0.025249522 0 0 0 255
-0.050046723 0.15259559 -0.025730219 0 0 0 255
-0.049740363 0.15270498 -0.026132796 0 0 0 255
-0.048949175 0.15299718 -0.026195951 0 0 0 255
-0.047951899 0.15336655 -0.026115954 0 0 0 255
-0.047289655 0.15361078 -0.026269417 0 0 0 255
-0.046618301 0.15385723 -0.026416721 0 0 0 255
-0.045937255 0.15410832 -0.026557496 0 0 0 255
-0.045484062 0.15427218 -0.026858808 0 0 0 255
-0.045158751 0.15438952 -0.027247831 0 0 0 255
-0.044946734 0.15446348 -0.027716938 0 0 0 255
-0.044710644 0.15454623 -0.028169665 0 0 0 255
-0.044474535 0.15462895 -0.028622389 0 0 0 255
-0.044145852 0.15474647 -0.029009815 0 0 0 255
-0.043692067 0.15491162 -0.029309396 0 0 0 255
-0.042697817 0.15527989 -0.029230995 0 0 0 255
-0.042007521 0.15553431 -0.029364746 0 0 0 255
-0.041277837 0.15580307 -0.029471891 0 0 0 255
-0.040725391 0.1560052 -0.029702976 0 0 0 255
-0.03998296 0.15627861 -0.029800627 0 0 0 255
-0.039490938 0.15645874 -0.030073104 0 0 0 255
-0.039133381 0.15658675 -0.030441316 0 0 0 255
-0.038848061 0.15668848 -0.030858677 0 0 0 255
-0.038563207 0.15679003 -0.031276904 0 0 0 255
-0.038323604 0.15687405 -0.031727165 0 0 0 255
-0.038079552 0.15695967 -0.032173228 0 0 0 255
-0.037623204 0.15712577 -0.032472074 0 0 0 255
-0.036897838 0.15739296 -0.032581188 0 0 0 255
-0.035909668 0.15776005 -0.032507345 0 0 0 255
-0.035292327 0.15798581 -0.032692846 0 0 0 255
-0.034696385 0.15820482 -0.032893129 0 0 0 255
-0.034145206 0.1584065 -0.033124581 0 0 0 255
-0.033599302 0.15860625 -0.033359725 0 0 0 255
-0.033130206 0.15877697 -0.033649083 0 0 0 255
-0.032676887 0.15894197 -0.033949532 0 0 0 255
-0.032374036 0.15905008 -0.034354571 0 0 0 255
-0.032075625 0.15915656 -0.034763806 0 0 0 255
-0.031811006 0.15924966 -0.035195954 0 0 0 255
-0.031549416 0.15934275 -0.035631061 0 0 0 255
-0.031302329 0.15942949 -0.036075532 0 0 0 255
-0.03105922 0.15951478 -0.036523327 0 0 0 255
-0.030861221 0.15958364 -0.037002288 0 0 0 255
-0.030008674 0.15989821 -0.037022322 0 0 0 255
-0.02758953 0.1607925 -0.037181124 0 0 0 255
-0.11425718 0.13043882 0.052166548 0 0 0 255
-0.11381965 0.130597 0.051856376 0 0 0 255
-0.11342151 0.13074084 0.051519603 0 0 0 255
-0.1130312 0.13088185 0.051178399 0 0 0 255
-0.1126777 0.13100834 0.050812688 0 0 0 255
-0.12792547 0.1252268 0.039747972 0 0 0 255
-0.12753622 0.1253674 0.039402809 0 0 0 255
-0.12716228 0.12550244 0.039047416 0 0 0 255
-0.12680285 0.1256322 0.038681302 0 0 0 255
-0.12647638 0.12574889 0.038291778 0 0 0 255
-0.12620111 0.12584697 0.037867893 0 0 0 255
-0.1259352 0.12594056 0.037436113 0 0 0 255
-0.12569419 0.12602614 0.036987085 0 0 0 255
-0.12547387 0.12610313 0.036523271 0 0 0 255
-0.12518504 0.12620611 0.036108371 0 0 0 255
-0.12497525 0.12627928 0.035637166 0 0 0 255
-0.12622774 0.12580213 0.034141909 0 0 0 255
-0.12622628 0.12579736 0.033525452 0 0 0 255
-0.12614238 0.12582257 0.032966901 0 0 0 255
-0.12610281 0.12583165 0.032376684 0 0 0 255
-0.12607679 0.12583581 0.031777475 0 0 0 255
-0.12581521 0.12592888 0.031342365 0 0 0 255
-0.1045242 0.13396952 0.045415469 0 0 0 255
-0.10428596 0.13405195 0.04497204 0 0 0 255
-0.1038566 0.13420822 0.044657443 0 0 0 255
-0.12365274 0.12671912 0.030386128 0 0 0 255
-0.10319568 0.13444346 0.043894485 0 0 0 255
-0.10281332 0.13458049 0.043547984 0 0 0 255
-0.10253383 0.13467902 0.043133259 0 0 0 255
-0.1022146 0.13479201 0.042743772 0 0 0 255
-0.10189348 0.13490677 0.042356383 0 0 0 255
-0.10154957 0.13502979 0.041985009 0 0 0 255
-0.10120498 0.13515201 0.041612271 0 0 0 255
-0.10084974 0.13527918 0.041247796 0 0 0 255
-0.10053821 0.13539046 0.040854745 0 0 0 255
-0.10018039 0.13551855 0.040490996 0 0 0 255
-0.099875063 0.13562649 0.040093888 0 0 0 255
-0.099550575 0.13574138 0.039708093 0 0 0 255
-0.099257991 0.13584468 0.039301492 0 0 0 255
-0.098946109 0.13595501 0.038908444 0 0 0 255
-0.098625466 0.13606958 0.038520187 0 0 0 255
-0.09832412 0.13617606 0.038119748 0 0 0 255
-0.098014459 0.13628557 0.037724599 0 0 0 255
-0.097743273 0.13638109 0.03730458 0 0 0 255
-0.097434893 0.13649014 0.036909066 0 0 0 255
-0.097112164 0.13660438 0.036522042 0 0 0 255
-0.09680602 0.13671263 0.036124431 0 0 0 255
-0.096501157 0.13682041 0.03572645 0 0 0 255
-0.096190095 0.13693146 0.035332538 0 0 0 255
-0.095897034 0.13703495 0.034926802 0 0 0 255
-0.095580846 0.13714683 0.034535717 0 0 0 255
-0.095272943 0.1372557 0.034139335 0 0 0 255
-0.095006198 0.13734853 0.033716485 0 0 0 255
-0.094728917 0.13744625 0.033299658 0 0 0 255
-0.094491504 0.1375284 0.032856729 0 0 0 255
-0.09423399 0.13761789 0.032426853 0 0 0 255
-0.093953207 0.13771687 0.032012492 0 0 0 255
-0.093675464 0.13781478 0.031596534 0 0 0 255
-0.093297087 0.13795036 0.031246705 0 0 0 255
-0.093017593 0.1380489 0.030831978 0 0 0 255
-0.092732012 0.13814962 0.030420447 0 0 0 255
-0.09242788 0.13825819 0.030015772 0 0 0 255
-0.092139989 0.13836084 0.029599143 0 0 0 255
-0.091863431 0.13845938 0.029175622 0 0 0 255
-0.091585249 0.13855743 0.028752469 0 0 0 255
-0.091289878 0.13866282 0.028341634 0 0 0 255
-0.091087908 0.13873313 0.027866 0 0 0 255
-0.090791248 0.13883896 0.027455531 0 0 0 255
-0.090477407 0.13895212 0.027057383 0 0 0 255
-0.090204485 0.13904826 0.026630532 0 0 0 255
-0.089903846 0.13915555 0.026223393 0 0 0 255
-0.089618996 0.1392571 0.025805168 0 0 0 255
-0.089255586 0.13938831 0.025442384 0 0 0 255
-0.088854052 0.13953337 0.025105841 0 0 0 255
-0.088520452 0.13965371 0.024722114 0 0 0 255
-0.088128164 0.13979545 0.024378544 0 0 0 255
-0.087752476 0.13993113 0.024024384 0 0 0 255
-0.087416768 0.14005117 0.023641888 0 0 0 255
-0.087080121 0.14017265 0.023259759 0 0 0 255
-0.086848818 0.14025363 0.022804204 0 0 0 255
-0.086621493 0.14033318 0.022345318 0 0 0 255
-0.086445823 0.14039393 0.021851201 0 0 0 255
-0.086280808 0.1404497 0.021348828 0 0 0 255
-0.086003438 0.14054853 0.020924807 0 0 0 255
-0.085754938 0.14063686 0.020481572 0 0 0 255
-0.085500836 0.14072616 0.020042034 0 0 0 255
-0.085151911 0.14085208 0.019668527 0 0 0 255
-0.084476255 0.14110012 0.019523188 0 0 0 255
-0.083804905 0.14134659 0.019375885 0 0 0 255
-0.083276525 0.14153996 0.019128419 0 0 0 255
-0.082836777 0.1417 0.018818982 0 0 0 255
-0.08238662 0.14186278 0.018516071 0 0 0 255
-0.082042493 0.14198697 0.018139733 0 0 0 255
-0.081742331 0.14209411 0.01773173 0 0 0 255
-0.081465304 0.14219278 0.017309073 0 0 0 255
-0.081211671 0.1422819 0.01686867 0 0 0 255
-0.08099696 0.14235793 0.016401159 0 0 0 255
-0.080747306 0.14244558 0.015957428 0 0 0 255
-0.080496706 0.1425336 0.015515424 0 0 0 255
-0.080192439 0.14264329 0.015111617 0 0 0 255
-0.079919517 0.14273943 0.014684765 0 0 0 255
-0.079606958 0.14285213 0.014286252 0 0 0 255
-0.079231858 0.14298651 0.013930361 0 0 0 255
-0.078896031 0.14310768 0.013548731 0 0 0 255
-0.078530043 0.14323981 0.01318668 0 0 0 255
-0.078143835 0.14337932 0.012839913 0 0 0 255
-0.077771649 0.14351371 0.012483291 0 0 0 255
-0.077408366 0.14364381 0.012119642 0 0 0 255
-0.077052437 0.14377229 0.011751064 0 0 0 255
-0.076739989 0.14388385 0.011351684 0 0 0 255
-0.076425672 0.14399719 0.010954403 0 0 0 255
-0.076136842 0.14410019 0.010539507 0 0 0 255
-0.075881459 0.14418995 0.010100336 0 0 0 255
-0.075671665 0.1442631 0.0096291294 0 0 0 255
-0.075520203 0.14431399 0.0091177654 0 0 0 255
-0.075357288 0.14437009 0.0086141573 0 0 0 255
-0.075166307 0.1444364 0.0081302645 0 0 0 255
-0.074968316 0.14450528 0.0076513002 0 0 0 255
-0.074759811 0.14457798 0.0071797287 0 0 0 255
-0.07449612 0.14467074 0.0067458502 0 0 0 255
-0.074169062 0.14478871 0.0063580596 0 0 0 255
-0.07383956 0.14490651 0.0059701344 0 0 0 255
-0.073421314 0.14505766 0.0056464127 0 0 0 255
-0.073076375 0.14518216 0.0052695768 0 0 0 255
-0.07268139 0.14532486 0.0049289707 0 0 0 255
-0.072247364 0.14548282 0.0046149711 0 0 0 255
-0.071785279 0.14565101 0.0043206844 0 0 0 255
-0.071379781 0.14579752 0.0039874711 0 0 0 255
-0.070921205 0.14596443 0.0036907196 0 0 0 255
-0.07044334 0.14613836 0.0034075221 0 0 0 255
-0.070031762 0.1462871 0.0030775052 0 0 0 255
-0.069667876 0.14641845 0.0027155881 0 0 0 255
-0.069346666 0.14653324 0.0023223693 0 0 0 255
-0.068992019 0.14666124 0.0019534258 0 0 0 255
-0.068694897 0.14676726 0.0015438241 0 0 0 255
-0.068380706 0.14687948 0.0011456767 0 0 0 255
-0.068106368 0.14697719 0.00072005717 0 0 0 255
-0.067779437 0.14709404 0.00033140043 0 0 0 255
-0.067449339 0.14721313 -5.4792501e-05 0 0 0 255
-0.067192666 0.14730337 -0.00049359817 0 0 0 255
-0.066926628 0.14739805 -0.00092451181 0 0 0 255
-0.066662356 0.14749213 -0.0013566571 0 0 0 255
-0.066485532 0.14755222 -0.0018512728 0 0 0 255
-0.06633839 0.14760259 -0.0023659687 0 0 0 255
-0.066211015 0.14764468 -0.0028937156 0 0 0 255
-0.066135086 0.14766699 -0.0034589265 0 0 0 255
-0.052186191 0.15263952 -0.023340371 0 0 0 255
-0.051669285 0.15282767 -0.023595598 0 0 0 255
-0.051220752 0.15299091 -0.023898873 0 0 0 255
-0.050928079 0.1530953 -0.024312673 0 0 0 255
-0.050736628 0.15316178 -0.0247957 0 0 0 255
-0.050603651 0.15320593 -0.025321119 0 0 0 255
-0.050452061 0.15325791 -0.025831616 0 0 0 255
-0.050261211 0.15332311 -0.026316375 0 0 0 255
-0.049728863 0.15351793 -0.026560511 0 0 0 255
-0.048505589 0.15397273 -0.026322074 0 0 0 255
-0.047816709 0.15422557 -0.02645706 0 0 0 255
-0.047140576 0.1544738 -0.026601531 0 0 0 255
-0.0464871 0.15471482 -0.026761156 0 0 0 255
-0.045932427 0.15491776 -0.026990142 0 0 0 255
-0.045519099 0.15506715 -0.027318925 0 0 0 255
-0.045279026 0.15515132 -0.027768321 0 0 0 255
-0.045079753 0.15522066 -0.028246919 0 0 0 255
-0.044881761 0.15528952 -0.028725883 0 0 0 255
-0.044650927 0.15537035 -0.029182304 0 0 0 255
-0.044419959 0.15545228 -0.02963786 0 0 0 255
-0.043695532 0.15571913 -0.029748701 0 0 0 255
-0.042479277 0.15617031 -0.029513827 0 0 0 255
-0.041777652 0.15642887 -0.029640686 0 0 0 255
-0.041277461 0.15661092 -0.029908732 0 0 0 255
-0.040603887 0.15685819 -0.030053936 0 0 0 255
-0.040025473 0.15707085 -0.030266542 0 0 0 255
-0.039552867 0.15724285 -0.030553434 0 0 0 255
-0.039278205 0.15733963 -0.030979056 0 0 0 255
-0.038962126 0.1574536 -0.031375103 0 0 0 255
-0.03872779 0.1575357 -0.031829059 0 0 0 255
-0.038505249 0.1576135 -0.032290779 0 0 0 255
-0.038216412 0.1577165 -0.032705672 0 0 0 255
-0.037773617 0.15787765 -0.033013511 0 0 0 255
-0.036396854 0.15838937 -0.032667518 0 0 0 255
-0.035835169 0.15859488 -0.032891575 0 0 0 255
-0.03534105 0.1587747 -0.033162821 0 0 0 255
-0.034667484 0.15902308 -0.033309393 0 0 0 255
-0.034034714 0.1592555 -0.033483803 0 0 0 255
-0.033598118 0.15941334 -0.033795703 0 0 0 255
-0.033094764 0.15959761 -0.034061287 0 0 0 255
-0.032698028 0.15974094 -0.034400657 0 0 0 255
-0.03236806 0.15985891 -0.034787718 0 0 0 255
-0.032128319 0.15994401 -0.035237111 0 0 0 255
-0.031870712 0.16003458 -0.035674185 0 0 0 255
-0.031652156 0.16011094 -0.036139231 0 0 0 255
-0.031464212 0.16017614 -0.036624722 0 0 0 255
-0.031235605 0.16025615 -0.037083238 0 0 0 255
-0.13125476 0.12482917 0.043155715 0 0 0 255
-0.13079362 0.12499702 0.042859692 0 0 0 255
-0.13045253 0.12512009 0.042481754 0 0 0 255
-0.11457057 0.13112181 0.052727088 0 0 0 255
-0.11434543 0.13119951 0.052275531 0 0 0 255
-0.11395816 0.13133939 0.05193273 0 0 0 255
-0.1135412 0.13149008 0.051608641 0 0 0 255
-0.11317591 0.13162091 0.051250689 0 0 0 255
-0.11280312 0.13175552 0.050897162 0 0 0 255
-0.11246589 0.13187507 0.050520867 0 0 0 255
-0.12773064 0.12609905 0.039445795 0 0 0 255
-0.12733214 0.12624301 0.039107654 0 0 0 255
-0.12698323 0.12636894 0.038734149 0 0 0 255
-0.1266861 0.12647495 0.038324542 0 0 0 255
-0.12637097 0.12658753 0.03792813 0 0 0 255
-0.12612119 0.12667629 0.037485264 0 0 0 255
-0.12585433 0.12677129 0.037053846 0 0 0 255
-0.12561777 0.1268542 0.03660199 0 0 0 255
-0.12536448 0.12694427 0.036161587 0 0 0 255
-0.12526515 0.12697615 0.035614125 0 0 0 255
-0.10699697 0.13387084 0.047544338 0 0 0 255
-0.12595806 0.12670483 0.033893574 0 0 0 255
-0.12619694 0.12661043 0.033108819 0 0 0 255
-0.10571358 0.13433582 0.046594616 0 0 0 255
-0.10534653 0.13446726 0.046237897 0 0 0 255
-0.10501713 0.13458504 0.045855802 0 0 0 255
-0.10463862 0.13472173 0.045506842 0 0 0 255
-0.10433727 0.13482822 0.045106396 0 0 0 255
-0.10398202 0.13495539 0.044741917 0 0 0 255
-0.10365928 0.13506967 0.044354893 0 0 0 255
-0.10330755 0.13519555 0.043987952 0 0 0 255
-0.10295534 0.13532162 0.043621875 0 0 0 255
-0.10262066 0.13544127 0.043243475 0 0 0 255
-0.10230353 0.13555458 0.042852756 0 0 0 255
-0.10197202 0.13567205 0.042471893 0 0 0 255
-0.10162684 0.13579556 0.042100891 0 0 0 255
-0.10131355 0.13590743 0.041709077 0 0 0 255
-0.10098076 0.13602537 0.041328575 0 0 0 255
-0.10067765 0.13613251 0.040929366 0 0 0 255
-0.10030744 0.13626619 0.040575109 0 0 0 255
-0.10001532 0.1363693 0.040167641 0 0 0 255
-0.099678427 0.13648979 0.039791342 0 0 0 255
-0.099395081 0.13658868 0.039379079 0 0 0 255
-0.099107757 0.13669004 0.038968779 0 0 0 255
-0.098794468 0.13680194 0.038576961 0 0 0 255
-0.098471731 0.13691621 0.03818994 0 0 0 255
-0.098198771 0.13701236 0.03777115 0 0 0 255
-0.097894855 0.13711978 0.037371442 0 0 0 255
-0.097582981 0.13723011 0.03697839 0 0 0 255
-0.097274959 0.1373401 0.03658288 0 0 0 255
-0.096965306 0.13744958 0.036187731 0 0 0 255
-0.096685812 0.13754812 0.035773002 0 0 0 255
-0.096393697 0.13765123 0.035365537 0 0 0 255
-0.096100166 0.13775489 0.034960665 0 0 0 255
-0.09578748 0.1378655 0.034567114 0 0 0 255
-0.095498398 0.13796753 0.034158051 0 0 0 255
-0.095188618 0.13807814 0.03376377 0 0 0 255
-0.094915792 0.13817316 0.033344112 0 0 0 255
-0.094646826 0.13826787 0.032921996 0 0 0 255
-0.094392337 0.13835624 0.032490518 0 0 0 255
-0.094121143 0.13845177 0.032070499 0 0 0 255
-0.093809739 0.1385619 0.031676583 0 0 0 255
-0.093461506 0.13868651 0.031307172 0 0 0 255
-0.093183763 0.13878441 0.030891215 0 0 0 255
-0.092908248 0.1388815 0.03047316 0 0 0 255
-0.092613213 0.13898674 0.030063689 0 0 0 255
-0.092303813 0.13909721 0.029662713 0 0 0 255
-0.092011005 0.13920166 0.029251145 0 0 0 255
-0.091717862 0.13930623 0.028838214 0 0 0 255
-0.091414198 0.13941464 0.028432673 0 0 0 255
-0.091184974 0.13949591 0.027975887 0 0 0 255
-0.090879083 0.13960513 0.027572446 0 0 0 255
-0.090596452 0.13970587 0.027152119 0 0 0 255
-0.090298861 0.13981205 0.026743386 0 0 0 255
-0.089985952 0.1399238 0.026344871 0 0 0 255
-0.089709863 0.14002216 0.025920482 0 0 0 255
-0.089409232 0.14012945 0.025513347 0 0 0 255
-0.089019045 0.14027146 0.025168544 0 0 0 255
-0.088710919 0.14038149 0.0247672 0 0 0 255
-0.088386208 0.14049754 0.024376445 0 0 0 255
-0.088116668 0.1405935 0.023947995 0 0 0 255
-0.087842807 0.14069106 0.023521511 0 0 0 255
-0.087587766 0.14078175 0.02308234 0 0 0 255
-0.087370023 0.14085782 0.022617795 0 0 0 255
-0.087083414 0.14095998 0.022200797 0 0 0 255
-0.086809546 0.14105754 0.021774312 0 0 0 255
-0.086569011 0.14114189 0.021325786 0 0 0 255
-0.086216584 0.1412691 0.020954743 0 0 0 255
-0.085828617 0.14140925 0.020609207 0 0 0 255
-0.085287966 0.14160708 0.020370366 0 0 0 255
-0.084514916 0.14189163 0.020293156 0 0 0 255
-0.084046289 0.14206219 0.020002931 0 0 0 255
-0.083632365 0.14221284 0.019675881 0 0 0 255
-0.083317697 0.14232524 0.019278597 0 0 0 255
-0.082977548 0.14244798 0.01889893 0 0 0 255
-0.082631327 0.14257187 0.018523829 0 0 0 255
-0.082348689 0.14267258 0.018103503 0 0 0 255
-0.082150236 0.14274164 0.017625405 0 0 0 255
-0.081996083 0.14279455 0.01711564 0 0 0 255
-0.081785813 0.14286788 0.016645297 0 0 0 255
-0.081558824 0.14294836 0.016186412 0 0 0 255
-0.081277147 0.14304769 0.015765723 0 0 0 255
-0.081006318 0.14314415 0.015337639 0 0 0 255
-0.080666162 0.14326686 0.014957972 0 0 0 255
-0.080304973 0.14339724 0.014593091 0 0 0 255
-0.079982825 0.14351237 0.014201605 0 0 0 255
-0.079571128 0.14366221 0.013872453 0 0 0 255
-0.079198122 0.14379691 0.013515331 0 0 0 255
-0.078814954 0.14393531 0.013166966 0 0 0 255
-0.078417405 0.14407894 0.012827093 0 0 0 255
-0.078057498 0.14420886 0.012461845 0 0 0 255
-0.077700749 0.14433658 0.012094134 0 0 0 255
-0.07736586 0.1444574 0.011710772 0 0 0 255
-0.07707049 0.14456277 0.011299938 0 0 0 255
-0.076761559 0.14467309 0.010898094 0 0 0 255
-0.076526612 0.14475648 0.010445869 0 0 0 255
-0.076336578 0.14482243 0.0099602435 0 0 0 255
-0.076152146 0.14488637 0.0094722882 0 0 0 255
-0.075966433 0.14495078 0.0089846998 0 0 0 255
-0.075769722 0.14501917 0.0085053686 0 0 0 255
-0.075533628 0.14510192 0.0080526434 0 0 0 255
-0.075275078 0.14519389 0.007615936 0 0 0 255
-0.074950837 0.14530978 0.0072243148 0 0 0 255
-0.074658498 0.14541404 0.0068118833 0 0 0 255
-0.074317873 0.14553694 0.0064330823 0 0 0 255
-0.073975973 0.14566033 0.0060546482 0 0 0 255
-0.073598996 0.14579645 0.0057008564 0 0 0 255
-0.07323686 0.14592719 0.0053377068 0 0 0 255
-0.072886787 0.14605248 0.0049637016 0 0 0 255
-0.072483383 0.1461993 0.0046292562 0 0 0 255
-0.072123602 0.14632812 0.0042631431 0 0 0 255
-0.071725458 0.14647302 0.0039250003 0 0 0 255
-0.07132791 0.14661665 0.0035851272 0 0 0 255
-0.070889086 0.14677529 0.0032753232 0 0 0 255
-0.07048662 0.14692178 0.0029391465 0 0 0 255
-0.07011842 0.14705472 0.0025791936 0 0 0 255
-0.069753721 0.14718638 0.0022167768 0 0 0 255
-0.06939394 0.14731522 0.0018506628 0 0 0 255
-0.069030523 0.14744644 0.0014878795 0 0 0 255
-0.068700418 0.14756551 0.001101688 0 0 0 255
-0.068399787 0.14767279 0.00069454964 0 0 0 255
-0.068045139 0.1478008 0.0003256062 0 0 0 255
-0.06769412 0.14792642 -4.6667643e-05 0 0 0 255
-0.067390792 0.14803576 -0.0004522074 0 0 0 255
-0.067138448 0.14812443 -0.0008929777 0 0 0 255
-0.066902228 0.14820828 -0.0013448363 0 0 0 255
-0.066704698 0.14827697 -0.0018246677 0 0 0 255
-0.066463344 0.14836161 -0.0022736965 0 0 0 255
-0.066376291 0.14838904 -0.0028297817 0 0 0 255
-0.066371314 0.14838554 -0.0034437748 0 0 0 255
-0.051477987 0.15370817 -0.023898643 0 0 0 255
-0.051269483 0.15378088 -0.024370216 0 0 0 255
-0.051068448 0.15385084 -0.02484758 0 0 0 255
-0.050925761 0.15389854 -0.025365105 0 0 0 255
-0.050833918 0.1539277 -0.025918361 0 0 0 255
-0.05070034 0.15397313 -0.026442047 0 0 0 255
-0.050481305 0.15404966 -0.026906226 0 0 0 255
-0.047568019 0.15512697 -0.026720311 0 0 0 255
-0.046915486 0.15536661 -0.026880302 0 0 0 255
-0.046435874 0.15554118 -0.027162269 0 0 0 255
-0.045930762 0.15572609 -0.027426619 0 0 0 255
-0.045579754 0.15585171 -0.027798891 0 0 0 255
-0.045405366 0.15591197 -0.028293373 0 0 0 255
-0.045223627 0.15597494 -0.028784292 0 0 0 255
-0.045029148 0.15604253 -0.02926572 0 0 0 255
-0.044878028 0.15609434 -0.029777087 0 0 0 255
-0.044676527 0.15616448 -0.030253585 0 0 0 255
-0.042221826 0.15707493 -0.029770918 0 0 0 255
-0.041746996 0.15724772 -0.030055717 0 0 0 255
-0.041176535 0.15745641 -0.030273613 0 0 0 255
-0.040555231 0.15768468 -0.030457146 0 0 0 255
-0.039970744 0.15789847 -0.030665187 0 0 0 255
-0.039626613 0.15802266 -0.031041523 0 0 0 255
-0.03932599 0.15812995 -0.031448662 0 0 0 255
-0.039063457 0.15822336 -0.03188204 0 0 0 255
-0.038844891 0.15829971 -0.032347083 0 0 0 255
-0.038635101 0.15837289 -0.032818295 0 0 0 255
-0.038344987 0.15847635 -0.033232823 0 0 0 255
-0.034513135 0.159888 -0.03363781 0 0 0 255
-0.034049302 0.16005681 -0.033930864 0 0 0 255
-0.033542443 0.16024238 -0.034193981 0 0 0 255
-0.033033825 0.16042748 -0.034454502 0 0 0 255
-0.032636281 0.1605711 -0.034794375 0 0 0 255
-0.032441795 0.16063869 -0.035275806 0 0 0 255
-0.032199029 0.16072492 -0.035723601 0 0 0 255
-0.031957202 0.16080976 -0.036171764 0 0 0 255
-0.031740729 0.16088639 -0.036638044 0 0 0 255
-0.13150318 0.12554008 0.043160506 0 0 0 255
-0.13103585 0.12571019 0.042869918 0 0 0 255
-0.13075098 0.12581173 0.042451687 0 0 0 255
-0.11473106 0.13185515 0.052788287 0 0 0 255
-0.11448056 0.13194206 0.052353486 0 0 0 255
-0.11409503 0.13208133 0.052009448 0 0 0 255
-0.11367807 0.13223201 0.051685363 0 0 0 255
-0.11332284 0.13235918 0.051320881 0 0 0 255
-0.11294654 0.13249506 0.05096982 0 0 0 255
-0.11259831 0.13261968 0.050600413 0 0 0 255
-0.11221595 0.1327567 0.050253917 0 0 0 255
-0.11188 0.13287686 0.049875882 0 0 0 255
-0.1115002 0.13301402 0.049527287 0 0 0 255
-0.12686601 0.12721185 0.038378257 0 0 0 255
-0.1265711 0.12731707 0.037966553 0 0 0 255
-0.12631512 0.12740812 0.037529118 0 0 0 255
-0.12603202 0.12750901 0.037109658 0 0 0 255
-0.125802 0.1275906 0.036652368 0 0 0 255
-0.10759465 0.13445359 0.048516776 0 0 0 255
-0.10722187 0.13458818 0.04816325 0 0 0 255
-0.10693489 0.13468944 0.047754321 0 0 0 255
-0.10661741 0.13480179 0.047363602 0 0 0 255
-0.10622885 0.13494216 0.047021165 0 0 0 255
-0.10584029 0.13508251 0.046678729 0 0 0 255
-0.10546318 0.13521762 0.046328533 0 0 0 255
-0.10511847 0.13534096 0.045956664 0 0 0 255
-0.10478379 0.13546064 0.045578264 0 0 0 255
-0.10448022 0.13556795 0.045179922 0 0 0 255
-0.10413947 0.13568982 0.044804715 0 0 0 255
-0.10381789 0.13580474 0.044418197 0 0 0 255
-0.10347492 0.13592744 0.044045094 0 0 0 255
-0.10311489 0.13605636 0.043683443 0 0 0 255
-0.10274082 0.13619035 0.043331653 0 0 0 255
-0.1023961 0.13631371 0.04295978 0 0 0 255
-0.10207546 0.13642828 0.042571522 0 0 0 255
-0.10175563 0.13654256 0.042183772 0 0 0 255
-0.10140437 0.13666826 0.041815959 0 0 0 255
-0.10109295 0.1367784 0.041422043 0 0 0 255
-0.1007425 0.13690384 0.041054733 0 0 0 255
-0.10036446 0.13704038 0.040704906 0 0 0 255
-0.10009023 0.137137 0.040286481 0 0 0 255
-0.099763982 0.13725254 0.039901923 0 0 0 255
-0.099454202 0.13736314 0.039507642 0 0 0 255
-0.099181727 0.13745913 0.039087988 0 0 0 255
-0.098911926 0.13755307 0.038666733 0 0 0 255
-0.098589063 0.13766843 0.038280576 0 0 0 255
-0.098320097 0.13776316 0.03785846 0 0 0 255
-0.098025747 0.13786708 0.037453089 0 0 0 255
-0.097694114 0.13798565 0.037073091 0 0 0 255
-0.09744139 0.13807338 0.036640383 0 0 0 255
-0.097132087 0.13818383 0.036245238 0 0 0 255
-0.096884146 0.1382698 0.035809696 0 0 0 255
-0.096576259 0.13837866 0.035413321 0 0 0 255
-0.096284956 0.1384815 0.035006352 0 0 0 255
-0.096007206 0.1385794 0.03459039 0 0 0 255
-0.095745243 0.13867156 0.034163345 0 0 0 255
-0.095437348 0.13878042 0.033766963 0 0 0 255
-0.095154807 0.13888006 0.033353835 0 0 0 255
-0.094890155 0.13897319 0.032929752 0 0 0 255
-0.094638243 0.13906167 0.03249618 0 0 0 255
-0.094346941 0.13916451 0.032089211 0 0 0 255
-0.094038576 0.13927355 0.031693697 0 0 0 255
-0.093732432 0.1393818 0.031296086 0 0 0 255
-0.093424872 0.13949159 0.030899707 0 0 0 255
-0.09314362 0.13959077 0.030486211 0 0 0 255
-0.092888117 0.13968056 0.03004927 0 0 0 255
-0.09258081 0.13979135 0.029647062 0 0 0 255
-0.092301212 0.13989097 0.029225137 0 0 0 255
-0.09197253 0.14000848 0.028837714 0 0 0 255
-0.091680661 0.14011258 0.028424416 0 0 0 255
-0.09142036 0.1402052 0.02798894 0 0 0 255
-0.091146842 0.14030261 0.027563822 0 0 0 255
-0.090841755 0.14041258 0.027159512 0 0 0 255
-0.090539843 0.14052035 0.026752742 0 0 0 255
-0.090233944 0.14062954 0.026349299 0 0 0 255
-0.089969665 0.14072362 0.025917154 0 0 0 255
-0.089703627 0.14081828 0.02548624 0 0 0 255
-0.089345947 0.14094742 0.025118893 0 0 0 255
-0.089047536 0.14105389 0.024709659 0 0 0 255
-0.088776708 0.14115033 0.024281574 0 0 0 255
-0.08848343 0.14125602 0.023869509 0 0 0 255
-0.088194609 0.14135902 0.02345461 0 0 0 255
-0.087920271 0.14145674 0.023028992 0 0 0 255
-0.087666512 0.14154696 0.022589456 0 0 0 255
-0.087327771 0.14166811 0.022208557 0 0 0 255
-0.086884506 0.14182945 0.021901581 0 0 0 255
-0.086478196 0.14197627 0.02156787 0 0 0 255
-0.085880488 0.14219594 0.02136882 0 0 0 255
-0.085282452 0.14241466 0.021169769 0 0 0 255
-0.084914237 0.14254761 0.020809816 0 0 0 255
-0.084486417 0.14270225 0.020491753 0 0 0 255
-0.08415854 0.14282052 0.020103464 0 0 0 255
-0.083809152 0.14294663 0.019730823 0 0 0 255
-0.083547093 0.14303988 0.019296579 0 0 0 255
-0.083269715 0.14313869 0.018872559 0 0 0 255
-0.083068222 0.14320883 0.018396059 0 0 0 255
-0.082963176 0.14324282 0.017853159 0 0 0 255
-0.082858585 0.14327769 0.017308028 0 0 0 255
-0.082729921 0.14332026 0.016780647 0 0 0 255
-0.082449049 0.14342038 0.016359089 0 0 0 255
-0.082111932 0.14354199 0.015977824 0 0 0 255
-0.081746764 0.14367384 0.015616274 0 0 0 255
-0.081411876 0.14379466 0.015232912 0 0 0 255
-0.081056878 0.14392173 0.014863968 0 0 0 255
-0.080634661 0.14407541 0.01454221 0 0 0 255
-0.080235362 0.14421967 0.014203569 0 0 0 255
