ply
format ascii 1.0
comment PCL generated
element vertex 1042
property float x
property float y
property float z
property uchar red
property uchar green
property uchar blue
property uchar alpha
element camera 0
property float view_px
property float view_py
property float view_pz
property float x_axisx
property float x_axisy
property float x_axisz
property float y_axisx
property float y_axisy
property float y_axisz
property float z_axisx
property float z_axisy
property float z_axisz
property float focal
property float scalex
property float scaley
property float centerx
property float centery
property int viewportx
property int viewporty
property float k1
property float k2
end_header
-0.12298673 0.14150134 0.058991637 0 0 0 255
-0.1225264 0.14166887 0.058696121 0 0 0 255
-0.12213386 0.14181066 0.058357015 0 0 0 255
-0.12179825 0.14193174 0.057978984 0 0 0 255
-0.12165759 0.14198188 0.057473619 0 0 0 255
-0.12148163 0.1420438 0.056990664 0 0 0 255
-0.12144254 0.1420559 0.056417435 0 0 0 255
-0.12140661 0.14206576 0.055841744 0 0 0 255
-0.12147073 0.14204031 0.055200286 0 0 0 255
-0.12424283 0.1410069 0.051570103 0 0 0 255
-0.12391026 0.1411269 0.051190473 0 0 0 255
-0.1236297 0.14122795 0.050776981 0 0 0 255
-0.12331243 0.14134234 0.050387129 0 0 0 255
-0.12299678 0.14145723 0.049996909 0 0 0 255
-0.12268782 0.1415686 0.049601763 0 0 0 255
-0.12238715 0.14167698 0.049201321 0 0 0 255
-0.12213896 0.14176625 0.048766144 0 0 0 255
-0.1217622 0.14190231 0.048415951 0 0 0 255
-0.12117716 0.14211631 0.048202947 0 0 0 255
-0.12078509 0.14225793 0.047862973 0 0 0 255
-0.12054695 0.14234354 0.047421277 0 0 0 255
-0.120423 0.14238654 0.046904456 0 0 0 255
-0.12037386 0.14240228 0.046337754 0 0 0 255
-0.12040094 0.14238924 0.04571994 0 0 0 255
-0.12042006 0.14237908 0.045108788 0 0 0 255
-0.12039816 0.14238493 0.044521876 0 0 0 255
-0.12025415 0.14243841 0.044005945 0 0 0 255
-0.12016988 0.14246908 0.043447264 0 0 0 255
-0.12013283 0.14248255 0.042857543 0 0 0 255
-0.12003453 0.14251834 0.042308718 0 0 0 255
-0.11973283 0.14262813 0.04190281 0 0 0 255
-0.12041938 0.14238039 0.038340516 0 0 0 255
-0.11968294 0.14264843 0.038237929 0 0 0 255
-0.1193409 0.14277291 0.037860364 0 0 0 255
-0.11803158 0.14325051 0.035074282 0 0 0 255
-0.1171987 0.14355366 0.035039466 0 0 0 255
-0.11667173 0.14374545 0.034790765 0 0 0 255
-0.11621012 0.14391345 0.034495611 0 0 0 255
-0.11569145 0.14410222 0.034241624 0 0 0 255
-0.11485297 0.14440633 0.034210496 0 0 0 255
-0.11096573 0.14581901 0.03630634 0 0 0 255
-0.10991986 0.14619964 0.036420103 0 0 0 255
-0.10897968 0.14654183 0.036459077 0 0 0 255
-0.10808239 0.14686841 0.036468983 0 0 0 255
-0.10732058 0.14714462 0.036384512 0 0 0 255
-0.10657563 0.14741682 0.03628226 0 0 0 255
-0.10591881 0.14765693 0.036117539 0 0 0 255
-0.1053333 0.14787111 0.035905398 0 0 0 255
-0.10483357 0.14805298 0.035636485 0 0 0 255
-0.10431726 0.14824089 0.035378162 0 0 0 255
-0.10393126 0.14838138 0.035033628 0 0 0 255
-0.10351862 0.14853051 0.034707576 0 0 0 255
-0.10312561 0.14867355 0.034367967 0 0 0 255
-0.102772 0.14880119 0.034003124 0 0 0 255
-0.10243322 0.14892448 0.033627555 0 0 0 255
-0.10209692 0.14904583 0.033246793 0 0 0 255
-0.10171105 0.14918627 0.032900024 0 0 0 255
-0.10136107 0.1493147 0.032527752 0 0 0 255
-0.10109092 0.14941302 0.032099668 0 0 0 255
-0.1008804 0.14948966 0.031629696 0 0 0 255
-0.10062779 0.14958158 0.031189291 0 0 0 255
-0.10051756 0.1496217 0.030650454 0 0 0 255
-0.10028121 0.14970773 0.030198095 0 0 0 255
-0.10011803 0.14976713 0.029694855 0 0 0 255
-0.099803448 0.14988267 0.029299306 0 0 0 255
-0.099602163 0.14995593 0.028822305 0 0 0 255
-0.099312268 0.15006144 0.028408641 0 0 0 255
-0.099063173 0.1501521 0.027965773 0 0 0 255
-0.098812789 0.15024324 0.02752327 0 0 0 255
-0.098550484 0.15033871 0.027090758 0 0 0 255
-0.098261043 0.15044405 0.026676228 0 0 0 255
-0.097972557 0.15054905 0.026259964 0 0 0 255
-0.097560853 0.15069889 0.025930814 0 0 0 255
-0.097143427 0.1508508 0.025606226 0 0 0 255
-0.096336029 0.15114467 0.025552427 0 0 0 255
-0.095809072 0.15133646 0.025303729 0 0 0 255
-0.09552139 0.15144117 0.024887964 0 0 0 255
-0.095329687 0.15151094 0.024405304 0 0 0 255
-0.095044106 0.15161593 0.02398831 0 0 0 255
-0.094644681 0.15176131 0.023650534 0 0 0 255
-0.094176866 0.15193158 0.023360809 0 0 0 255
-0.093720049 0.15209785 0.023062827 0 0 0 255
-0.093275502 0.15225963 0.022756219 0 0 0 255
-0.09294574 0.15237966 0.022370026 0 0 0 255
-0.092611656 0.15250126 0.021985799 0 0 0 255
-0.09239541 0.15257996 0.021520387 0 0 0 255
-0.092170388 0.15266186 0.021061134 0 0 0 255
-0.091935784 0.15274724 0.020607546 0 0 0 255
-0.091436408 0.15292899 0.020339997 0 0 0 255
-0.090708733 0.15319385 0.020231254 0 0 0 255
-0.090066984 0.15342742 0.020062141 0 0 0 255
-0.089724481 0.15355207 0.019685436 0 0 0 255
-0.089396946 0.15367128 0.019297147 0 0 0 255
-0.089129031 0.15376879 0.018866966 0 0 0 255
-0.088881209 0.15385899 0.018423732 0 0 0 255
-0.088621467 0.15395457 0.017989121 0 0 0 255
-0.088425443 0.15402593 0.017508425 0 0 0 255
-0.088247299 0.15409076 0.017016772 0 0 0 255
-0.088102937 0.1541433 0.016500847 0 0 0 255
-0.087895922 0.15421864 0.016028408 0 0 0 255
-0.087591179 0.15432957 0.0156241 0 0 0 255
-0.087247394 0.15445468 0.015247765 0 0 0 255
-0.086917639 0.15457469 0.014861573 0 0 0 255
-0.086558074 0.15470557 0.014496326 0 0 0 255
-0.086302295 0.15479971 0.014058385 0 0 0 255
-0.08587002 0.15495706 0.013743153 0 0 0 255
-0.084873378 0.15531872 0.013821552 0 0 0 255
-0.084349461 0.15550941 0.013571255 0 0 0 255
-0.083946526 0.15565607 0.013235943 0 0 0 255
-0.083510742 0.15581468 0.012923175 0 0 0 255
-0.083107807 0.15596132 0.012587864 0 0 0 255
-0.082760513 0.15608773 0.012213992 0 0 0 255
-0.082361549 0.15623292 0.011875351 0 0 0 255
-0.082019866 0.15635835 0.011497783 0 0 0 255
-0.081712894 0.15647008 0.011095573 0 0 0 255
-0.081395879 0.15658545 0.010699891 0 0 0 255
-0.081066124 0.15670547 0.010313697 0 0 0 255
-0.080790728 0.15680571 0.0098893102 0 0 0 255
-0.080521047 0.15690385 0.0094603607 0 0 0 255
-0.08027897 0.15699196 0.0090125641 0 0 0 255
-0.080090769 0.15706046 0.0085274391 0 0 0 255
-0.079969078 0.15710582 0.0079963617 0 0 0 255
-0.079842724 0.1571518 0.0074672475 0 0 0 255
-0.079778552 0.15717517 0.0068955114 0 0 0 255
-0.079720929 0.15719613 0.0063197115 0 0 0 255
-0.079647176 0.15722299 0.005753635 0 0 0 255
-0.079396203 0.15731539 0.0053128647 0 0 0 255
-0.076951005 0.15820535 0.0033198451 0 0 0 255
-0.076572619 0.15834305 0.0029672845 0 0 0 255
-0.076136366 0.15850183 0.0026553823 0 0 0 255
-0.075607181 0.15869443 0.0024087802 0 0 0 255
-0.075236745 0.15882926 0.0020495597 0 0 0 255
-0.074857891 0.15896714 0.0016978653 0 0 0 255
-0.074529886 0.15908653 0.0013104407 0 0 0 255
-0.074132212 0.15923126 0.00097143324 0 0 0 255
-0.073771358 0.1593626 0.00060655177 0 0 0 255
-0.073407471 0.15949504 0.00024326891 0 0 0 255
-0.073038667 0.15962927 -0.00011495175 0 0 0 255
-0.072728664 0.15974209 -0.00051556341 0 0 0 255
-0.072420418 0.15985428 -0.00091740675 0 0 0 255
-0.072122097 0.15996392 -0.0013249111 0 0 0 255
-0.071866915 0.1600568 -0.0017645825 0 0 0 255
-0.071669951 0.16012847 -0.0022435477 0 0 0 255
-0.07169953 0.16011772 -0.0028800853 0 0 0 255
-0.12591687 0.1412181 0.05961876 0 0 0 255
-0.12544823 0.14138868 0.059328537 0 0 0 255
-0.12463304 0.14168748 0.05926837 0 0 0 255
-0.12393907 0.14194113 0.059128158 0 0 0 255
-0.12345687 0.14211662 0.058846924 0 0 0 255
-0.12309017 0.14224903 0.058490202 0 0 0 255
-0.12274694 0.14237395 0.058118828 0 0 0 255
-0.12249269 0.14246543 0.057686854 0 0 0 255
-0.12252711 0.14244969 0.057065479 0 0 0 255
-0.12246314 0.14247087 0.056508131 0 0 0 255
-0.12262309 0.14240946 0.055803377 0 0 0 255
-0.12274589 0.14236158 0.055123128 0 0 0 255
-0.12512207 0.14147866 0.051756509 0 0 0 255
-0.12485202 0.14157587 0.051335618 0 0 0 255
-0.12436633 0.14175265 0.051056851 0 0 0 255
-0.12399963 0.14188504 0.050700128 0 0 0 255
-0.12362719 0.14202061 0.050346598 0 0 0 255
-0.12328888 0.14214265 0.049971536 0 0 0 255
-0.12297465 0.14225596 0.049580082 0 0 0 255
-0.12268005 0.14236319 0.049175084 0 0 0 255
-0.12245338 0.14244355 0.048725624 0 0 0 255
-0.12217316 0.14254554 0.048312128 0 0 0 255
-0.1217313 0.14270529 0.048003923 0 0 0 255
-0.12131199 0.14285791 0.047682799 0 0 0 255
-0.12112504 0.14292489 0.047206733 0 0 0 255
-0.1209727 0.14297821 0.046708263 0 0 0 255
-0.12097907 0.14297375 0.046105236 0 0 0 255
-0.12120028 0.14289005 0.045359582 0 0 0 255
-0.12123369 0.14287576 0.044732742 0 0 0 255
-0.12120014 0.14288904 0.044139195 0 0 0 255
-0.12114123 0.14291048 0.043563765 0 0 0 255
-0.12110148 0.14292601 0.042975646 0 0 0 255
-0.12093526 0.14298651 0.042474002 0 0 0 255
-0.12077149 0.14304717 0.041972496 0 0 0 255
-0.1177326 0.14415853 0.034844797 0 0 0 255
-0.11736298 0.14429305 0.034486078 0 0 0 255
-0.11697664 0.14443366 0.034140177 0 0 0 255
-0.1165453 0.14459066 0.033823211 0 0 0 255
-0.11224321 0.14615113 0.036209822 0 0 0 255
-0.11109097 0.14656942 0.036397014 0 0 0 255
-0.11004208 0.14695117 0.036512375 0 0 0 255
-0.10910283 0.14729196 0.03655098 0 0 0 255
-0.10827521 0.14759317 0.036512468 0 0 0 255
-0.10752838 0.14786394 0.036416411 0 0 0 255
-0.10680972 0.14812656 0.036295678 0 0 0 255
-0.10619055 0.14835297 0.036105584 0 0 0 255
-0.1056318 0.14855632 0.035875466 0 0 0 255
-0.1051364 0.14873664 0.035604585 0 0 0 255
-0.10466298 0.14890894 0.03531719 0 0 0 255
-0.1042861 0.14904611 0.034967862 0 0 0 255
-0.10390584 0.14918345 0.034620136 0 0 0 255
-0.1035535 0.14931169 0.034253556 0 0 0 255
-0.1031938 0.14944154 0.033891909 0 0 0 255
-0.10293851 0.14953445 0.033454467 0 0 0 255
-0.10260302 0.14965761 0.03307147 0 0 0 255
-0.1022798 0.14977525 0.032681216 0 0 0 255
-0.10190317 0.14991233 0.032327421 0 0 0 255
-0.10342796 0.14935951 0.030646119 0 0 0 255
-0.10310204 0.14947918 0.030257462 0 0 0 255
-0.10256071 0.14967515 0.030018618 0 0 0 255
-0.10199916 0.14987952 0.029793695 0 0 0 255
-0.10155636 0.15004069 0.029485855 0 0 0 255
-0.10103022 0.15023218 0.029237656 0 0 0 255
-0.10070127 0.15035297 0.028850596 0 0 0 255
-0.10030009 0.15049899 0.028514052 0 0 0 255
-0.099932685 0.15063269 0.028153233 0 0 0 255
-0.099662542 0.15073101 0.027725149 0 0 0 255
-0.099390656 0.15082997 0.0272983 0 0 0 255
-0.099064402 0.15094872 0.026909642 0 0 0 255
-0.098781042 0.15105291 0.02649055 0 0 0 255
-0.098488107 0.15115952 0.026078483 0 0 0 255
-0.098242514 0.15124892 0.025633151 0 0 0 255
-0.098003939 0.15133575 0.025182892 0 0 0 255
-0.097656518 0.15146327 0.024809884 0 0 0 255
-0.097397372 0.15155758 0.024373543 0 0 0 255
-0.096203059 0.1519912 0.024590302 0 0 0 255
-0.095864058 0.15211457 0.024211135 0 0 0 255
-0.095536992 0.15223362 0.02382198 0 0 0 255
-0.095058657 0.15240771 0.023539646 0 0 0 255
-0.094491363 0.15261418 0.023319285 0 0 0 255
-0.093966633 0.15280516 0.023068488 0 0 0 255
-0.093423888 0.15300269 0.022830876 0 0 0 255
-0.092970096 0.15316786 0.022531295 0 0 0 255
-0.09254308 0.15332326 0.022212366 0 0 0 255
-0.092302755 0.15341073 0.02176334 0 0 0 255
-0.092153475 0.15346615 0.021251107 0 0 0 255
-0.092198029 0.15344994 0.020602981 0 0 0 255
-0.092067569 0.15349849 0.020078063 0 0 0 255
-0.091870129 0.15357034 0.019599965 0 0 0 255
-0.091695145 0.15363403 0.019104484 0 0 0 255
-0.091488481 0.15371032 0.018632045 0 0 0 255
-0.091231897 0.15380371 0.018194973 0 0 0 255
-0.090982325 0.15389453 0.01775297 0 0 0 255
-0.090373419 0.15411615 0.017561311 0 0 0 255
-0.089913562 0.15428351 0.017264927 0 0 0 255
-0.089353748 0.15448727 0.01703877 0 0 0 255
-0.089021765 0.15460809 0.016654676 0 0 0 255
-0.088732339 0.15471344 0.016240146 0 0 0 255
-0.088429689 0.15482464 0.015834607 0 0 0 255
-0.088077143 0.15495296 0.01546443 0 0 0 255
-0.08769875 0.15509067 0.015111869 0 0 0 255
-0.087378234 0.15520734 0.014718652 0 0 0 255
-0.087105051 0.15530676 0.014292167 0 0 0 255
-0.0869027 0.15538147 0.013817763 0 0 0 255
-0.086768858 0.15543018 0.013294443 0 0 0 255
-0.086454883 0.15554444 0.012897162 0 0 0 255
-0.084993228 0.15607537 0.013300696 0 0 0 255
-0.084620573 0.156211 0.012943574 0 0 0 255
-0.084051996 0.15641794 0.012723578 0 0 0 255
-0.083568871 0.15659378 0.012444077 0 0 0 255
-0.083173767 0.15673758 0.012104338 0 0 0 255
-0.082846701 0.15685663 0.01171518 0 0 0 255
-0.082450777 0.15700072 0.01137494 0 0 0 255
-0.082134917 0.15711674 0.010979757 0 0 0 255
-0.081805632 0.15723659 0.010592699 0 0 0 255
-0.08151795 0.15734129 0.010176935 0 0 0 255
-0.081218474 0.15745029 0.0097689321 0 0 0 255
-0.080890469 0.15756966 0.0093815066 0 0 0 255
-0.080606639 0.15767403 0.0089632804 0 0 0 255
-0.080371574 0.15775959 0.0085105551 0 0 0 255
-0.080183849 0.15782791 0.008024564 0 0 0 255
-0.080097213 0.1578605 0.0074688452 0 0 0 255
-0.080014236 0.15789071 0.0069097956 0 0 0 255
-0.079966187 0.15790926 0.0063269711 0 0 0 255
-0.079989687 0.15790072 0.0056936298 0 0 0 255
-0.074475542 0.15990977 0.00091056107 0 0 0 255
-0.074149765 0.16002834 0.00052103912 0 0 0 255
-0.073765635 0.16016816 0.00017304067 0 0 0 255
-0.073404789 0.16029948 -0.00019184034 0 0 0 255
-0.073131144 0.16039908 -0.00061745988 0 0 0 255
-0.072842523 0.16050519 -0.0010328572 0 0 0 255
-0.07251627 0.16062392 -0.001421513 0 0 0 255
-0.072306566 0.16070026 -0.0018909872 0 0 0 255
-0.072030351 0.16080078 -0.0023158747 0 0 0 255
-0.12641877 0.14182293 0.059454098 0 0 0 255
-0.12588762 0.14201625 0.05920513 0 0 0 255
-0.12519762 0.14226843 0.059061587 0 0 0 255
-0.12449358 0.14252573 0.058927901 0 0 0 255
-0.1240945 0.14266992 0.058592856 0 0 0 255
-0.12379465 0.14277907 0.058191549 0 0 0 255
-0.12350754 0.1428825 0.057782114 0 0 0 255
-0.12343958 0.14290512 0.0572281 0 0 0 255
-0.12355793 0.14285989 0.056550682 0 0 0 255
-0.12348694 0.14288363 0.055998266 0 0 0 255
-0.12358774 0.14284478 0.055333167 0 0 0 255
-0.12560585 0.14209326 0.051603165 0 0 0 255
-0.12526661 0.14221674 0.051228464 0 0 0 255
-0.12477167 0.14239687 0.050956719 0 0 0 255
-0.1243533 0.14254914 0.050633863 0 0 0 255
-0.12394289 0.14269745 0.050305709 0 0 0 255
-0.12356122 0.14283636 0.049959213 0 0 0 255
-0.123261 0.14294454 0.049557906 0 0 0 255
-0.12299353 0.14304084 0.049136285 0 0 0 255
-0.12279958 0.14311036 0.048665151 0 0 0 255
-0.12258153 0.14318866 0.048210397 0 0 0 255
-0.12231196 0.14328571 0.047788646 0 0 0 255
-0.12195787 0.14341459 0.047423299 0 0 0 255
-0.12175117 0.14348875 0.046961658 0 0 0 255
-0.12162466 0.14353266 0.046445571 0 0 0 255
-0.12166645 0.14351532 0.045819268 0 0 0 255
-0.12192285 0.14341988 0.045045376 0 0 0 255
-0.12197205 0.14340302 0.044395287 0 0 0 255
-0.12196434 0.1434069 0.043784123 0 0 0 255
-0.12187819 0.14343934 0.043227542 0 0 0 255
-0.12185423 0.14344911 0.042628333 0 0 0 255
-0.12186579 0.14344597 0.042003617 0 0 0 255
-0.11816315 0.14480209 0.034107231 0 0 0 255
-0.11770329 0.14496946 0.033810843 0 0 0 255
-0.11722016 0.1451453 0.033531345 0 0 0 255
-0.11261383 0.1468133 0.036128871 0 0 0 255
-0.11145937 0.14723241 0.036318161 0 0 0 255
-0.11041889 0.14761004 0.03642736 0 0 0 255
-0.10948491 0.14794889 0.036462273 0 0 0 255
-0.10872532 0.14822429 0.036375709 0 0 0 255
-0.1079149 0.14851819 0.036324874 0 0 0 255
-0.10727794 0.14875001 0.036152929 0 0 0 255
-0.10663515 0.14898396 0.035979714 0 0 0 255
-0.10607851 0.14918762 0.035748363 0 0 0 255
-0.10565791 0.14934069 0.035427604 0 0 0 255
-0.10522868 0.14949585 0.035112143 0 0 0 255
-0.10581488 0.14928463 0.034090865 0 0 0 255
-0.10568407 0.14933224 0.033565946 0 0 0 255
-0.10547391 0.14940982 0.033095971 0 0 0 255
-0.10522433 0.14950065 0.032653969 0 0 0 255
-0.10497079 0.14959399 0.032213934 0 0 0 255
-0.10485928 0.14963457 0.031675462 0 0 0 255
-0.10462104 0.14972234 0.031225201 0 0 0 255
-0.1043627 0.14981636 0.030789359 0 0 0 255
-0.10418935 0.14988053 0.030293513 0 0 0 255
-0.10390039 0.1499857 0.029878113 0 0 0 255
-0.10326295 0.15021768 0.029707035 0 0 0 255
-0.10261992 0.15045173 0.029538287 0 0 0 255
-0.10210921 0.15063654 0.029278999 0 0 0 255
-0.10160726 0.15081923 0.029012185 0 0 0 255
-0.1012152 0.15096299 0.02866948 0 0 0 255
-0.10083552 0.15110117 0.028317286 0 0 0 255
-0.10047771 0.15123141 0.027950807 0 0 0 255
-0.10017601 0.15134121 0.027544899 0 0 0 255
-0.099878624 0.15145051 0.027135666 0 0 0 255
-0.09954185 0.15157309 0.0267544 0 0 0 255
-0.099265978 0.15167348 0.026330881 0 0 0 255
-0.099006698 0.15176892 0.025895404 0 0 0 255
-0.098776892 0.15185256 0.025438981 0 0 0 255
-0.098567992 0.15192965 0.024968643 0 0 0 255
-0.098357469 0.15200628 0.024498668 0 0 0 255
-0.098192409 0.15206741 0.023997527 0 0 0 255
-0.097922273 0.15216573 0.023569444 0 0 0 255
-0.096598327 0.15264547 0.023876511 0 0 0 255
-0.096102923 0.15282577 0.023605634 0 0 0 255
-0.095570706 0.15301947 0.023360629 0 0 0 255
-0.09494251 0.15324812 0.023182524 0 0 0 255
-0.094309062 0.15347867 0.023008116 0 0 0 255
-0.093705073 0.15369743 0.02281276 0 0 0 255
-0.093118966 0.15391074 0.022605088 0 0 0 255
-0.092583701 0.15410556 0.022361681 0 0 0 255
-0.092136927 0.15426818 0.02205717 0 0 0 255
-0.091683611 0.15443316 0.021756724 0 0 0 255
-0.091411717 0.15453212 0.021329874 0 0 0 255
-0.092019558 0.15431407 0.020289347 0 0 0 255
-0.09210255 0.15428492 0.019614981 0 0 0 255
-0.091980517 0.15432934 0.019083906 0 0 0 255
-0.091855325 0.15437599 0.018555291 0 0 0 255
-0.091625981 0.15445946 0.018098004 0 0 0 255
-0.09135443 0.15455936 0.017671151 0 0 0 255
-0.090991825 0.15469134 0.017307503 0 0 0 255
-0.090600699 0.1548337 0.016964434 0 0 0 255
-0.090173677 0.15498911 0.016645504 0 0 0 255
-0.089718617 0.15515473 0.016346291 0 0 0 255
-0.089254774 0.15532355 0.016053237 0 0 0 255
-0.08884085 0.1554742 0.015726183 0 0 0 255
-0.088441424 0.15561958 0.015388407 0 0 0 255
-0.088055082 0.15576126 0.015041143 0 0 0 255
-0.087684989 0.15589595 0.014683286 0 0 0 255
-0.087360963 0.15601388 0.014292532 0 0 0 255
-0.087139793 0.15609545 0.013830816 0 0 0 255
-0.086991452 0.15614943 0.013318219 0 0 0 255
-0.086783022 0.15622635 0.012847013 0 0 0 255
-0.082190588 0.1578978 0.0098858001 0 0 0 255
-0.081909463 0.15800014 0.0094659748 0 0 0 255
-0.081468888 0.15816048 0.0091560371 0 0 0 255
-0.080999322 0.15833138 0.0088675451 0 0 0 255
-0.093710892 0.1537315 -0.00061716326 0 0 0 255
-0.09347441 0.15381862 -0.0010686563 0 0 0 255
-0.08048977 0.15851894 0.0073739747 0 0 0 255
-0.08033219 0.15857735 0.0068670386 0 0 0 255
-0.12685561 0.14245144 0.059331428 0 0 0 255
-0.12644553 0.14260067 0.059003279 0 0 0 255
-0.12591216 0.14279482 0.058756407 0 0 0 255
-0.12527335 0.14302731 0.058579862 0 0 0 255
-0.12483183 0.143188 0.058271658 0 0 0 255
-0.12465926 0.14324974 0.057787105 0 0 0 255
-0.12439084 0.14334744 0.05736585 0 0 0 255
-0.1245508 0.14328602 0.056661099 0 0 0 255
-0.12463231 0.14325528 0.056008182 0 0 0 255
-0.12467587 0.14323729 0.055380646 0 0 0 255
-0.12635079 0.14261493 0.051877737 0 0 0 255
-0.12612398 0.14269643 0.051429149 0 0 0 255
-0.12571695 0.14284457 0.051099397 0 0 0 255
-0.12519887 0.14303312 0.050842304 0 0 0 255
-0.12470442 0.14321309 0.050569698 0 0 0 255
-0.12428604 0.14336537 0.050246838 0 0 0 255
-0.12388603 0.14351095 0.049912162 0 0 0 255
-0.12358407 0.14361979 0.049512088 0 0 0 255
-0.12335726 0.14370126 0.049063493 0 0 0 255
-0.12314799 0.14377636 0.048602585 0 0 0 255
-0.1229829 0.14383538 0.048112236 0 0 0 255
-0.12279724 0.1439019 0.047635809 0 0 0 255
-0.12263297 0.14396061 0.047145959 0 0 0 255
-0.12240535 0.1440424 0.046696868 0 0 0 255
-0.12228525 0.14408503 0.046177588 0 0 0 255
-0.12242417 0.14403236 0.045486245 0 0 0 255
-0.12274398 0.14391808 0.044650014 0 0 0 255
-0.12269418 0.14393727 0.044068418 0 0 0 255
-0.12268472 0.14394177 0.043458492 0 0 0 255
-0.12283913 0.14388664 0.042734478 0 0 0 255
-0.12277178 0.14391223 0.042165201 0 0 0 255
-0.12275039 0.14392214 0.041563898 0 0 0 255
-0.11864129 0.14542833 0.033951987 0 0 0 255
-0.11807587 0.14563303 0.033729527 0 0 0 255
-0.11756563 0.14581874 0.033468008 0 0 0 255
-0.11717625 0.14596045 0.033123706 0 0 0 255
-0.11216396 0.14777303 0.036003616 0 0 0 255
-0.11114371 0.14814222 0.036098897 0 0 0 255
-0.11012158 0.14851318 0.036196277 0 0 0 255
-0.10942034 0.14876735 0.03606819 0 0 0 255
-0.10872072 0.14902198 0.035939731 0 0 0 255
-0.1081885 0.14921568 0.035694726 0 0 0 255
-0.10783547 0.14934418 0.035325415 0 0 0 255
-0.10805161 0.14926763 0.034558281 0 0 0 255
-0.10760753 0.14942926 0.034250807 0 0 0 255
-0.10717829 0.14958549 0.033933979 0 0 0 255
-0.10686478 0.1496996 0.033535831 0 0 0 255
-0.10648289 0.14983858 0.033185732 0 0 0 255
-0.10618854 0.14994676 0.032774903 0 0 0 255
-0.10590565 0.15004973 0.032356307 0 0 0 255
-0.10558723 0.15016669 0.031961855 0 0 0 255
-0.10542871 0.15022545 0.031456649 0 0 0 255
-0.10517085 0.15031929 0.031019945 0 0 0 255
-0.10495365 0.15039942 0.030554898 0 0 0 255
-0.10479034 0.15045992 0.030052524 0 0 0 255
-0.10450968 0.15056208 0.029631833 0 0 0 255
-0.10387272 0.1507939 0.029459888 0 0 0 255
-0.10322186 0.15102971 0.029296935 0 0 0 255
-0.10267561 0.15122852 0.029061787 0 0 0 255
-0.10218243 0.15140802 0.028788812 0 0 0 255
-0.10178955 0.15155101 0.028446974 0 0 0 255
-0.10139106 0.15169604 0.028107466 0 0 0 255
-0.10102436 0.15183058 0.027748015 0 0 0 255
-0.10069203 0.15195154 0.027362553 0 0 0 255
-0.10039734 0.15205881 0.026951719 0 0 0 255
-0.10004466 0.15218823 0.026582409 0 0 0 255
-0.099790767 0.15228063 0.026142372 0 0 0 255
-0.099545524 0.15237096 0.025697039 0 0 0 255
-0.099299923 0.15246034 0.025251705 0 0 0 255
-0.099100262 0.15253407 0.024774339 0 0 0 255
-0.098959282 0.15258645 0.024256816 0 0 0 255
-0.098825321 0.15263627 0.023734361 0 0 0 255
-0.098699301 0.1526832 0.023205249 0 0 0 255
-0.098247275 0.15284771 0.022904435 0 0 0 255
-0.096898913 0.15333527 0.023227884 0 0 0 255
-0.096111149 0.15362197 0.023161899 0 0 0 255
-0.095442757 0.15386418 0.023011265 0 0 0 255
-0.094784752 0.15410367 0.022854105 0 0 0 255
-0.094074272 0.15436119 0.022733042 0 0 0 255
-0.093435556 0.15459366 0.022562329 0 0 0 255
-0.092808768 0.15482073 0.022382991 0 0 0 255
-0.092285782 0.15501107 0.022130962 0 0 0 255
-0.091763146 0.15520129 0.021880299 0 0 0 255
-0.091336608 0.15535653 0.021560503 0 0 0 255
-0.090835944 0.15553875 0.021293322 0 0 0 255
-0.090467602 0.15567282 0.020934235 0 0 0 255
-0.092032 0.15510875 0.019225825 0 0 0 255
-0.092023686 0.15511391 0.018616395 0 0 0 255
-0.091818884 0.15518844 0.018141856 0 0 0 255
-0.091572702 0.1552791 0.017698258 0 0 0 255
-0.091277197 0.15538664 0.017286925 0 0 0 255
-0.090992905 0.15549119 0.016869564 0 0 0 255
-0.090569407 0.15564533 0.016548172 0 0 0 255
-0.090192765 0.15578242 0.016194379 0 0 0 255
-0.089706138 0.15595953 0.01591734 0 0 0 255
-0.089264624 0.15612021 0.015609135 0 0 0 255
-0.088816568 0.15628329 0.015304992 0 0 0 255
-0.088400885 0.15643458 0.014979171 0 0 0 255
-0.08798264 0.15658681 0.014654081 0 0 0 255
-0.087588817 0.1567312 0.014312611 0 0 0 255
-0.087312944 0.15683161 0.013889089 0 0 0 255
-0.087108023 0.15690726 0.01341542 0 0 0 255
-0.086894467 0.15698498 0.012947043 0 0 0 255
-0.086717129 0.15705058 0.012454526 0 0 0 255
-0.086632259 0.15708254 0.011897574 0 0 0 255
-0.09376964 0.15451996 -0.00047770422 0 0 0 255
-0.093459167 0.15463297 -0.00087745022 0 0 0 255
-0.093135953 0.15475166 -0.0012690704 0 0 0 255
-0.092905201 0.15483564 -0.0017237607 0 0 0 255
-0.092793219 0.15487747 -0.0022627311 0 0 0 255
-0.09257333 0.15495856 -0.0027248114 0 0 0 255
-0.12731206 0.14307278 0.059196569 0 0 0 255
-0.12706117 0.14316407 0.05876299 0 0 0 255
-0.12668793 0.14329888 0.058410335 0 0 0 255
-0.12634295 0.14342442 0.058040198 0 0 0 255
-0.12591325 0.14358082 0.05772423 0 0 0 255
-0.12566283 0.1436709 0.057291161 0 0 0 255
-0.12556681 0.14370477 0.056755491 0 0 0 255
-0.12553939 0.14371368 0.05617537 0 0 0 255
-0.12573256 0.14364128 0.05544807 0 0 0 255
-0.12577868 0.14362343 0.054818437 0 0 0 255
-0.12682043 0.14323576 0.051735122 0 0 0 255
-0.12664434 0.14329877 0.051253028 0 0 0 255
-0.12614334 0.14348112 0.050984479 0 0 0 255
-0.12560165 0.14367828 0.050742909 0 0 0 255
-0.12508966 0.14386462 0.05048262 0 0 0 255
-0.12470624 0.14400417 0.050137356 0 0 0 255
-0.12433906 0.14413781 0.04978013 0 0 0 255
-0.12402085 0.14425255 0.049392011 0 0 0 255
-0.12380842 0.14432988 0.048933566 0 0 0 255
-0.12357297 0.14441448 0.0484889 0 0 0 255
-0.12346165 0.14445394 0.047963459 0 0 0 255
-0.12332496 0.14450264 0.047454763 0 0 0 255
-0.12325336 0.14452761 0.04690408 0 0 0 255
-0.12311189 0.14457807 0.046398215 0 0 0 255
-0.12317938 0.14455244 0.045755163 0 0 0 255
-0.12363292 0.1443895 0.044824421 0 0 0 255
-0.12360801 0.14440067 0.044225581 0 0 0 255
-0.12355821 0.14441986 0.043643989 0 0 0 255
-0.12367533 0.14437938 0.042945348 0 0 0 255
-0.12361279 0.1444032 0.042373244 0 0 0 255
-0.12352347 0.14443785 0.041819122 0 0 0 255
-0.11838485 0.14632085 0.033692066 0 0 0 255
-0.11782329 0.14652523 0.03346714 0 0 0 255
-0.11742339 0.14667079 0.033130232 0 0 0 255
-0.11706558 0.14680099 0.032763753 0 0 0 255
-0.11674587 0.14691843 0.03236967 0 0 0 255
-0.11653838 0.14699395 0.031898092 0 0 0 255
-0.11041048 0.14920509 0.03555591 0 0 0 255
-0.10993309 0.14937885 0.035271846 0 0 0 255
-0.10943593 0.1495598 0.035002202 0 0 0 255
-0.10934359 0.14959447 0.034451041 0 0 0 255
-0.1091444 0.14966804 0.033972811 0 0 0 255
-0.10834098 0.14995939 0.033917051 0 0 0 255
-0.10795032 0.15010157 0.033573113 0 0 0 255
-0.1076209 0.15022253 0.03318692 0 0 0 255
-0.10721318 0.15037093 0.032854438 0 0 0 255
-0.10691708 0.15047975 0.032444835 0 0 0 255
-0.10659083 0.1505985 0.032056179 0 0 0 255
-0.10621642 0.15073477 0.031700291 0 0 0 255
-0.10603686 0.15080118 0.031209869 0 0 0 255
-0.10580914 0.15088512 0.030752216 0 0 0 255
-0.1100893 0.1493433 0.027150305 0 0 0 255
-0.10952201 0.14954975 0.026929943 0 0 0 255
-0.10509585 0.15114686 0.029400203 0 0 0 255
-0.10440405 0.15139863 0.029267319 0 0 0 255
-0.1038667 0.15159316 0.029025145 0 0 0 255
-0.10330515 0.15179753 0.028800221 0 0 0 255
-0.10281804 0.15197481 0.028524049 0 0 0 255
-0.10240202 0.15212624 0.028196862 0 0 0 255
-0.10200867 0.15226939 0.027855892 0 0 0 255
-0.10162629 0.15240964 0.027505293 0 0 0 255
-0.10124218 0.15254943 0.027157295 0 0 0 255
-0.10096011 0.15265316 0.026737837 0 0 0 255
-0.1006895 0.15275165 0.026310621 0 0 0 255
-0.10042368 0.15284947 0.025879206 0 0 0 255
-0.10023758 0.15291826 0.025392849 0 0 0 255
-0.1000011 0.15300539 0.024941355 0 0 0 255
-0.099746734 0.15309796 0.024502184 0 0 0 255
-0.099724054 0.15310836 0.023901245 0 0 0 255
-0.09948197 0.15319647 0.023453446 0 0 0 255
-0.09932743 0.15325376 0.022944914 0 0 0 255
-0.09914659 0.15332064 0.02245486 0 0 0 255
-0.099033527 0.15336391 0.021918489 0 0 0 255
-0.10212162 0.15225169 0.019147327 0 0 0 255
-0.095848776 0.15451454 0.022905672 0 0 0 255
-0.095347181 0.15469711 0.022640223 0 0 0 255
-0.094563991 0.15498109 0.022569176 0 0 0 255
-0.093863562 0.15523495 0.022441585 0 0 0 255
-0.093181476 0.1554832 0.02230081 0 0 0 255
-0.092626125 0.15568426 0.022071822 0 0 0 255
-0.09200716 0.15590952 0.02188669 0 0 0 255
-0.091462664 0.15610771 0.021650311 0 0 0 255
-0.090912908 0.1563078 0.021417629 0 0 0 255
-0.09042418 0.1564846 0.021141823 0 0 0 255
-0.090043917 0.15662408 0.020791361 0 0 0 255
-0.089599364 0.15678588 0.020484753 0 0 0 255
-0.091864981 0.15597086 0.018288342 0 0 0 255
-0.091682389 0.15603837 0.017799521 0 0 0 255
-0.091463566 0.15611802 0.017334841 0 0 0 255
-0.091219127 0.15620804 0.016890008 0 0 0 255
-0.090831973 0.15634896 0.016543608 0 0 0 255
-0.090496488 0.15647212 0.016160613 0 0 0 255
-0.090058006 0.15663169 0.015850808 0 0 0 255
-0.089616969 0.15679222 0.015541737 0 0 0 255
-0.089192986 0.15694654 0.01522121 0 0 0 255
-0.088736638 0.15711263 0.014922362 0 0 0 255
-0.088291153 0.15727475 0.014617487 0 0 0 255
-0.08787068 0.1574278 0.014294496 0 0 0 255
-0.087547466 0.15754649 0.013902875 0 0 0 255
-0.087285496 0.15764293 0.013470363 0 0 0 255
-0.08706142 0.15772447 0.01300938 0 0 0 255
-0.086919151 0.15777731 0.01249222 0 0 0 255
-0.086778641 0.15782954 0.011973829 0 0 0 255
-0.086559221 0.15791044 0.011510881 0 0 0 255
-0.093771115 0.15532818 -0.00029932149 0 0 0 255
-0.093431175 0.15545297 -0.00067812204 0 0 0 255
-0.09313602 0.1555604 -0.0010880902 0 0 0 255
-0.09289778 0.15564816 -0.001538353 0 0 0 255
-0.092692398 0.155724 -0.0020111566 0 0 0 255
-0.092550598 0.15577666 -0.0025291797 0 0 0 255
-0.092243634 0.15588838 -0.0029313909 0 0 0 255
-0.091982603 0.15598446 -0.003365634 0 0 0 255
-0.091765419 0.15606457 -0.0038306788 0 0 0 255
-0.12767811 0.14372703 0.058522347 0 0 0 255
-0.12753043 0.14377972 0.05802191 0 0 0 255
-0.12724413 0.14388393 0.057611614 0 0 0 255
-0.12701476 0.14396633 0.057163753 0 0 0 255
-0.1267162 0.14407501 0.056762081 0 0 0 255
-0.12657773 0.14412434 0.056254614 0 0 0 255
-0.12647985 0.14415997 0.055721048 0 0 0 255
-0.12654957 0.14413354 0.055075899 0 0 0 255
-0.12648673 0.14415532 0.054519054 0 0 0 255
-0.12721495 0.14388284 0.051044285 0 0 0 255
-0.12961355 0.14300665 0.048843186 0 0 0 255
-0.12915848 0.14317228 0.048543971 0 0 0 255
-0.12880802 0.14330091 0.04817256 0 0 0 255
-0.12516358 0.14463052 0.050001994 0 0 0 255
-0.12492977 0.14471455 0.049558334 0 0 0 255
-0.12465481 0.14481464 0.049141139 0 0 0 255
-0.12435414 0.144923 0.0487407 0 0 0 255
-0.12417536 0.14498806 0.048260212 0 0 0 255
-0.12404615 0.14503402 0.04774572 0 0 0 255
-0.1239173 0.14507985 0.047232594 0 0 0 255
-0.12394984 0.14506695 0.04661195 0 0 0 255
-0.12397632 0.14505625 0.045994502 0 0 0 255
-0.12422868 0.14496759 0.045203224 0 0 0 255
-0.12447146 0.14488244 0.044417609 0 0 0 255
-0.12439744 0.1449115 0.043853261 0 0 0 255
-0.12447599 0.14488503 0.043181729 0 0 0 255
-0.12439334 0.14491616 0.042622678 0 0 0 255
-0.12417568 0.14499645 0.042158496 0 0 0 255
-0.11866847 0.14701682 0.033672716 0 0 0 255
-0.11816829 0.14719887 0.033404671 0 0 0 255
-0.11777061 0.14734361 0.033065666 0 0 0 255
-0.11743593 0.14746647 0.032683168 0 0 0 255
-0.11710827 0.14758679 0.032295745 0 0 0 255
-0.11691563 0.14765798 0.031813446 0 0 0 255
-0.11674659 0.14772056 0.03131564 0 0 0 255
-0.11658679 0.14777979 0.030810799 0 0 0 255
-0.11615323 0.1479376 0.03049593 0 0 0 255
-0.11460988 0.14849503 0.030956142 0 0 0 255
-0.1143817 0.14857915 0.030499358 0 0 0 255
-0.11394195 0.14873922 0.03018992 0 0 0 255
-0.11357759 0.14887181 0.029827502 0 0 0 255
-0.11320305 0.1490092 0.029472476 0 0 0 255
-0.11323648 0.14899917 0.028832108 0 0 0 255
-0.11302232 0.14907818 0.028365465 0 0 0 255
-0.11250716 0.14926568 0.028109008 0 0 0 255
-0.11199915 0.1494495 0.027846754 0 0 0 255
-0.11141829 0.14966092 0.027635384 0 0 0 255
-0.11097679 0.14982161 0.027327178 0 0 0 255
-0.11042271 0.15002327 0.027096458 0 0 0 255
-0.11001755 0.15017071 0.026763245 0 0 0 255
-0.10954845 0.15034147 0.026473887 0 0 0 255
-0.10910215 0.15050389 0.026168512 0 0 0 255
-0.10862954 0.15067591 0.02588162 0 0 0 255
-0.10396436 0.1523568 0.028518574 0 0 0 255
-0.10358024 0.15249661 0.028170576 0 0 0 255
-0.10309455 0.15267338 0.027891805 0 0 0 255
-0.10282252 0.15277345 0.02746582 0 0 0 255
-0.10240953 0.15292376 0.027137036 0 0 0 255
-0.10201618 0.15306692 0.026796065 0 0 0 255
-0.10177316 0.15315643 0.026348634 0 0 0 255
-0.1015099 0.15325332 0.025916489 0 0 0 255
-0.10125939 0.15334554 0.025474852 0 0 0 255
-0.10093185 0.15346475 0.025086561 0 0 0 255
-0.10071817 0.15354359 0.024619052 0 0 0 255
-0.1005372 0.1536116 0.024129864 0 0 0 255
-0.10041247 0.15365806 0.023600385 0 0 0 255
-0.10018697 0.1537412 0.023140633 0 0 0 255
-0.10397839 0.15237831 0.019880239 0 0 0 255
-0.10358456 0.1525227 0.019538768 0 0 0 255
-0.10306987 0.15271004 0.019281443 0 0 0 255
-0.10256887 0.15289131 0.019014262 0 0 0 255
-0.10224472 0.15301035 0.018624375 0 0 0 255
-0.10182121 0.15316449 0.018302981 0 0 0 255
-0.10158601 0.15325116 0.017851122 0 0 0 255
-0.1015085 0.15328148 0.017289244 0 0 0 255
-0.093742162 0.15607725 0.022088161 0 0 0 255
-0.093183629 0.15628053 0.021861635 0 0 0 255
-0.092379406 0.15657218 0.021805374 0 0 0 255
-0.091729358 0.15680772 0.02164292 0 0 0 255
-0.091132849 0.15702376 0.021441771 0 0 0 255
-0.090586603 0.15722258 0.021206625 0 0 0 255
-0.090136796 0.15738629 0.020903712 0 0 0 255
-0.089754775 0.15752637 0.020554483 0 0 0 255
-0.089442551 0.15764003 0.02015597 0 0 0 255
-0.089110091 0.15776207 0.019771375 0 0 0 255
-0.091462314 0.15691768 0.01751459 0 0 0 255
-0.091266155 0.15699013 0.01703476 0 0 0 255
-0.090974972 0.15709612 0.016621461 0 0 0 255
-0.09068495 0.15720272 0.016208664 0 0 0 255
-0.090320118 0.15733658 0.015845746 0 0 0 255
-0.089899182 0.15748978 0.015523622 0 0 0 255
-0.089494489 0.15763707 0.015189543 0 0 0 255
-0.089044683 0.15780078 0.014886633 0 0 0 255
-0.088613689 0.15795764 0.014571033 0 0 0 255
-0.088187151 0.15811288 0.01425124 0 0 0 255
-0.087831423 0.15824342 0.013883526 0 0 0 255
-0.087523997 0.15835531 0.013482184 0 0 0 255
-0.087259457 0.15845264 0.013050403 0 0 0 255
-0.087083064 0.15851793 0.012556154 0 0 0 255
-0.086916596 0.15858065 0.012056245 0 0 0 255
-0.086744055 0.1586445 0.011560897 0 0 0 255
-0.093755871 0.1561425 -0.00010811631 0 0 0 255
-0.093463279 0.15625004 -0.00052018277 0 0 0 255
-0.093172565 0.15635586 -0.00093434751 0 0 0 255
-0.092865944 0.15646851 -0.0013365569 0 0 0 255
-0.092602216 0.15656558 -0.0017678374 0 0 0 255
-0.092406541 0.15663785 -0.002248534 0 0 0 255
-0.092195421 0.15671577 -0.0027167769 0 0 0 255
-0.091987461 0.15679252 -0.0031888494 0 0 0 255
-0.091815859 0.15685605 -0.0036859289 0 0 0 255
-0.091530278 0.15696104 -0.004102923 0 0 0 255
-0.091368251 0.15702108 -0.0046056639 0 0 0 255
-0.091086179 0.1571248 -0.0050251205 0 0 0 255
-0.12814274 0.14434649 0.058383055 0 0 0 255
-0.12832874 0.14427772 0.057661552 0 0 0 255
-0.12830788 0.14428532 0.057076003 0 0 0 255
-0.12807103 0.14437047 0.056633942 0 0 0 255
-0.12766398 0.1445186 0.056304187 0 0 0 255
-0.12733175 0.14463952 0.055924561 0 0 0 255
-0.12726635 0.14466226 0.055368446 0 0 0 255
-0.12723976 0.14467195 0.054787464 0 0 0 255
-0.12710658 0.14471936 0.054276302 0 0 0 255
-0.13009113 0.14362885 0.048688442 0 0 0 255
-0.12954232 0.14382859 0.048454028 0 0 0 255
-0.12907626 0.14399822 0.048163071 0 0 0 255
-0.12857606 0.14418027 0.047895025 0 0 0 255
-0.12568703 0.14523175 0.04922618 0 0 0 255
-0.1254476 0.14531784 0.048784845 0 0 0 255
-0.12509002 0.14544798 0.048421968 0 0 0 255
-0.12479272 0.14555618 0.048019931 0 0 0 255
-0.12464456 0.14561011 0.047518987 0 0 0 255
-0.124713 0.14558414 0.046874203 0 0 0 255
-0.1248248 0.14554344 0.046198115 0 0 0 255
-0.12496634 0.14549512 0.04548309 0 0 0 255
-0.12522362 0.14540467 0.04468675 0 0 0 255
-0.12524557 0.1453988 0.044055507 0 0 0 255
-0.12517555 0.14542644 0.043487832 0 0 0 255
-0.12511031 0.14545231 0.04291733 0 0 0 255
-0.1249089 0.14552666 0.042441193 0 0 0 255
-0.11868615 0.14781171 0.033222824 0 0 0 255
-0.11824862 0.14797096 0.032911293 0 0 0 255
-0.11787724 0.14810611 0.032553799 0 0 0 255
-0.11756933 0.14821926 0.032151952 0 0 0 255
-0.11733238 0.14830655 0.03170133 0 0 0 255
-0.1171388 0.14837806 0.031220768 0 0 0 255
-0.11692418 0.1484583 0.030753624 0 0 0 255
-0.1165646 0.14858918 0.030388378 0 0 0 255
-0.11600479 0.14879294 0.030162221 0 0 0 255
-0.1151835 0.14908971 0.030118776 0 0 0 255
-0.11447349 0.14934708 0.029996848 0 0 0 255
-0.11406307 0.14949645 0.029667327 0 0 0 255
-0.11377621 0.14960191 0.0292507 0 0 0 255
-0.11378813 0.14959972 0.028625987 0 0 0 255
-0.11337899 0.14974968 0.028294737 0 0 0 255
-0.1128552 0.14993925 0.028043574 0 0 0 255
-0.11234751 0.15012403 0.027781321 0 0 0 255
-0.11178198 0.15032986 0.027559726 0 0 0 255
-0.11134398 0.15048927 0.027249057 0 0 0 255
-0.11095986 0.15062907 0.026901059 0 0 0 255
-0.11051928 0.15078944 0.02659112 0 0 0 255
-0.1100738 0.15095156 0.026286244 0 0 0 255
-0.10953632 0.1511472 0.026044939 0 0 0 255
-0.10903087 0.15133116 0.025780588 0 0 0 255
-0.10859987 0.15148802 0.025464989 0 0 0 255
-0.10815006 0.15165174 0.025162078 0 0 0 255
-0.10784344 0.15176439 0.02475987 0 0 0 255
-0.10799679 0.15171176 0.024037085 0 0 0 255
-0.10766049 0.15183416 0.023654956 0 0 0 255
-0.10731225 0.15196197 0.023281449 0 0 0 255
-0.10696355 0.15208995 0.022908811 0 0 0 255
-0.1064823 0.15226404 0.022627212 0 0 0 255
-0.10604464 0.1524244 0.02231654 0 0 0 255
-0.10577963 0.15252192 0.02188563 0 0 0 255
-0.10555939 0.15260312 0.021422179 0 0 0 255
-0.10555331 0.15260749 0.020810653 0 0 0 255
-0.10526867 0.15271215 0.020391922 0 0 0 255
-0.10495949 0.15282467 0.019991813 0 0 0 255
-0.10438517 0.1530337 0.019776378 0 0 0 255
-0.10402082 0.15316632 0.019413961 0 0 0 255
-0.10356049 0.15333386 0.019118443 0 0 0 255
-0.10314561 0.15348591 0.018791756 0 0 0 255
-0.10282861 0.15360129 0.018396074 0 0 0 255
-0.10246634 0.15373421 0.018032422 0 0 0 255
-0.10220532 0.15383027 0.017598182 0 0 0 255
-0.10207707 0.153878 0.017071165 0 0 0 255
-0.10218309 0.15384263 0.016381649 0 0 0 255
-0.093764879 0.15686819 0.021633703 0 0 0 255
-0.09288092 0.15718777 0.021633748 0 0 0 255
-0.092114329 0.15746571 0.021552112 0 0 0 255
-0.091453761 0.15770507 0.021397049 0 0 0 255
-0.090855978 0.15792158 0.021196268 0 0 0 255
-0.090343863 0.15810797 0.02093821 0 0 0 255
-0.089932159 0.15825781 0.02060906 0 0 0 255
-0.089567326 0.15839165 0.020246144 0 0 0 255
-0.089221314 0.15851758 0.019871904 0 0 0 255
-0.089062795 0.15857741 0.019365335 0 0 0 255
-0.091131426 0.15783623 0.017307283 0 0 0 255
-0.09100657 0.15788381 0.016778668 0 0 0 255
-0.090829708 0.15794924 0.016285285 0 0 0 255
-0.090475738 0.15807915 0.01591634 0 0 0 255
-0.090128914 0.15820536 0.015541603 0 0 0 255
-0.089769684 0.15833718 0.015176356 0 0 0 255
-0.089358926 0.15848666 0.014845473 0 0 0 255
-0.088963814 0.15863048 0.014505733 0 0 0 255
-0.08853586 0.15878731 0.01418717 0 0 0 255
-0.088134676 0.1589333 0.013850627 0 0 0 255
-0.087796628 0.15905635 0.01346973 0 0 0 255
-0.087500528 0.15916516 0.013060126 0 0 0 255
-0.08728157 0.15924592 0.012596314 0 0 0 255
-0.087073028 0.15932396 0.012125974 0 0 0 255
-0.086979389 0.15935911 0.011575182 0 0 0 255
-0.086848453 0.15940888 0.011049764 0 0 0 255
-0.086708754 0.1594608 0.010531873 0 0 0 255
-0.093505904 0.15704332 -0.00036963727 0 0 0 255
-0.093167379 0.15716654 -0.00074966997 0 0 0 255
-0.092836678 0.15728796 -0.0011354964 0 0 0 255
-0.092545837 0.15739489 -0.0015487941 0 0 0 255
-0.092349686 0.15746734 -0.0020286245 0 0 0 255
-0.092153057 0.15753995 -0.0025075898 0 0 0 255
-0.091903016 0.15763202 -0.0029500937 0 0 0 255
-0.091685362 0.15771231 -0.0034142723 0 0 0 255
-0.091466412 0.15779306 -0.0038780859 0 0 0 255
-0.091289416 0.15785961 -0.0043706018 0 0 0 255
-0.091028392 0.15795566 -0.0048048468 0 0 0 255
-0.090794936 0.1580417 -0.0052579371 0 0 0 255
-0.090570264 0.15812454 -0.00571719 0 0 0 255
-0.090385109 0.15819299 -0.0062052784 0 0 0 255
-0.090125352 0.15828858 -0.0066398885 0 0 0 255
-0.089891911 0.15837462 -0.0070929797 0 0 0 255
-0.12939125 0.14467956 0.056528211 0 0 0 255
-0.12906907 0.14479683 0.056142054 0 0 0 255
-0.12901056 0.14481813 0.055581883 0 0 0 255
-0.12854977 0.14498582 0.055287227 0 0 0 255
-0.1283426 0.14506124 0.054825082 0 0 0 255
-0.13121127 0.14401929 0.048700582 0 0 0 255
-0.1305805 0.1442478 0.048524577 0 0 0 255
-0.12996823 0.14446957 0.048334517 0 0 0 255
-0.12941799 0.14466983 0.048102699 0 0 0 255
-0.12887141 0.1448677 0.047867551 0 0 0 255
-0.12807372 0.14515696 0.047807224 0 0 0 255
-0.12658213 0.14569879 0.048203919 0 0 0 255
-0.12596437 0.14592363 0.048012596 0 0 0 255
-0.12566054 0.14603421 0.047614619 0 0 0 255
-0.12559946 0.14605537 0.047056541 0 0 0 255
-0.12580222 0.1459837 0.046310052 0 0 0 255
-0.12583074 0.14597651 0.045673382 0 0 0 255
-0.12581985 0.14598259 0.045064684 0 0 0 255
-0.12584743 0.14597577 0.044429749 0 0 0 255
-0.1257962 0.14599654 0.043849386 0 0 0 255
-0.12574896 0.14601584 0.043265693 0 0 0 255
-0.12561184 0.14606787 0.042745706 0 0 0 255
-0.11640307 0.1494493 0.030062787 0 0 0 255
-0.11577407 0.14967716 0.029885549 0 0 0 255
-0.11501463 0.14995144 0.029798118 0 0 0 255
-0.11456481 0.15011515 0.029495208 0 0 0 255
-0.11446671 0.15015619 0.028331153 0 0 0 255
-0.11392619 0.15035185 0.028092809 0 0 0 255
-0.11336287 0.15055688 0.027869117 0 0 0 255
-0.11277642 0.15076926 0.027661443 0 0 0 255
-0.11223719 0.15096551 0.027421368 0 0 0 255
-0.11205681 0.15103222 0.02693045 0 0 0 255
-0.11174364 0.15114728 0.0265323 0 0 0 255
-0.11120266 0.15134418 0.026293457 0 0 0 255
-0.11067172 0.1515374 0.026048088 0 0 0 255
-0.11011682 0.15173829 0.025818234 0 0 0 255
-0.10958764 0.1519309 0.025571635 0 0 0 255
-0.10907389 0.15211788 0.025312576 0 0 0 255
-0.10879709 0.1522197 0.024889423 0 0 0 255
-0.10862548 0.15228322 0.024392342 0 0 0 255
-0.10859834 0.15229522 0.023795599 0 0 0 255
-0.10829347 0.15240724 0.023392156 0 0 0 255
-0.10776873 0.15259822 0.02314136 0 0 0 255
-0.10737936 0.15273994 0.022797057 0 0 0 255
-0.10692416 0.15290669 0.022498708 0 0 0 255
-0.10658436 0.15303035 0.022119042 0 0 0 255
-0.10625588 0.15315098 0.02173112 0 0 0 255
-0.10611524 0.15320429 0.021213591 0 0 0 255
-0.1060084 0.1532453 0.020671792 0 0 0 255
-0.10576442 0.15333515 0.020226093 0 0 0 255
-0.10550818 0.15342948 0.01978902 0 0 0 255
-0.10498695 0.15361919 0.019535758 0 0 0 255
-0.10453013 0.15378545 0.019237775 0 0 0 255
-0.10417326 0.15391533 0.018869564 0 0 0 255
-0.10389598 0.15401733 0.018447274 0 0 0 255
-0.10350261 0.15416154 0.018104937 0 0 0 255
-0.10328192 0.15424295 0.017642355 0 0 0 255
-0.10299189 0.15434955 0.017229555 0 0 0 255
-0.10277517 0.15442951 0.016763646 0 0 0 255
-0.10279748 0.15442459 0.016132403 0 0 0 255
-0.10317513 0.15429138 0.01525278 0 0 0 255
-0.093408629 0.15779491 0.021444509 0 0 0 255
-0.092744201 0.15803567 0.021290546 0 0 0 255
-0.091901876 0.15834011 0.021261888 0 0 0 255
-0.091225997 0.15858506 0.021117048 0 0 0 255
-0.090644337 0.15879568 0.020906543 0 0 0 255
-0.090155132 0.15897372 0.020630237 0 0 0 255
-0.089760967 0.15911719 0.020288765 0 0 0 255
-0.089440316 0.15923496 0.019896412 0 0 0 255
-0.089188054 0.15932783 0.019456008 0 0 0 255
-0.088914275 0.15942855 0.019031256 0 0 0 255
-0.088835947 0.15945917 0.018468877 0 0 0 255
-0.090819344 0.15875113 0.016471194 0 0 0 255
-0.090595134 0.1588338 0.016011078 0 0 0 255
-0.090309553 0.15893881 0.015594082 0 0 0 255
-0.089994632 0.15905449 0.015197167 0 0 0 255
-0.089632362 0.15918739 0.014833516 0 0 0 255
-0.089274555 0.15931763 0.014467038 0 0 0 255
-0.088889495 0.15945883 0.014119407 0 0 0 255
-0.088488311 0.15960485 0.013782863 0 0 0 255
-0.088112488 0.1597427 0.013428205 0 0 0 255
-0.087810665 0.15985362 0.013023165 0 0 0 255
-0.087529056 0.15995717 0.01260284 0 0 0 255
-0.087314904 0.16003619 0.012136196 0 0 0 255
-0.087185256 0.1600855 0.011610411 0 0 0 255
-0.087060995 0.1601318 0.011080066 0 0 0 255
-0.086951919 0.16017362 0.010540363 0 0 0 255
-0.093218766 0.1579566 -0.00060528331 0 0 0 255
-0.092877544 0.15808184 -0.00098371878 0 0 0 255
-0.092601202 0.1581835 -0.0014077388 0 0 0 255
-0.09236823 0.15826936 -0.0018616961 0 0 0 255
-0.092116773 0.15836193 -0.0023016017 0 0 0 255
-0.09188731 0.15844651 -0.0027580224 0 0 0 255
-0.091649547 0.15853411 -0.0032091485 0 0 0 255
-0.091442741 0.15861151 -0.0036807219 0 0 0 255
-0.091244362 0.15868479 -0.0041584549 0 0 0 255
-0.09099561 0.15877639 -0.004601323 0 0 0 255
-0.090791032 0.15885295 -0.0050749928 0 0 0 255
-0.09054707 0.1589428 -0.0055206921 0 0 0 255
-0.090333849 0.15902147 -0.0059890654 0 0 0 255
-0.090081587 0.15911436 -0.0064294701 0 0 0 255
-0.089940943 0.15916768 -0.0069469949 0 0 0 255
-0.089619011 0.15928592 -0.0073389821 0 0 0 255
-0.089318126 0.15939648 -0.007745754 0 0 0 255
-0.089016758 0.15950723 -0.0081516616 0 0 0 255
-0.13109572 0.14485735 0.048343096 0 0 0 255
-0.13039145 0.14511156 0.048217971 0 0 0 255
-0.12983339 0.14531466 0.047990579 0 0 0 255
-0.12925522 0.14552401 0.047777612 0 0 0 255
-0.12849917 0.14579812 0.047688585 0 0 0 255
-0.12773222 0.14607513 0.047606945 0 0 0 255
-0.12705776 0.14631955 0.047459509 0 0 0 255
-0.12677346 0.14642408 0.047042146 0 0 0 255
-0.12658209 0.14649479 0.046559487 0 0 0 255
-0.12676957 0.14643084 0.045812428 0 0 0 255
-0.12664074 0.14647985 0.045287143 0 0 0 255
-0.12646294 0.14654669 0.044794127 0 0 0 255
-0.1264642 0.1465494 0.044177666 0 0 0 255
-0.12639417 0.14657703 0.043609992 0 0 0 255
-0.11450751 0.15094373 0.027865242 0 0 0 255
-0.11405198 0.15110952 0.027566891 0 0 0 255
-0.11314661 0.15144221 0.026349541 0 0 0 255
-0.11248079 0.15168348 0.026198177 0 0 0 255
-0.11186546 0.15190639 0.026009714 0 0 0 255
-0.11121892 0.15214065 0.025844797 0 0 0 255
-0.11066403 0.15234154 0.025614943 0 0 0 255
-0.110201 0.15251005 0.025322387 0 0 0 255
-0.10974804 0.15267599 0.02502194 0 0 0 255
-0.10965392 0.15271235 0.02447065 0 0 0 255
-0.10948186 0.15277603 0.023974437 0 0 0 255
-0.10915196 0.15289716 0.023589108 0 0 0 255
-0.10891804 0.15298443 0.023135519 0 0 0 255
-0.10836491 0.15318468 0.022904433 0 0 0 255
-0.10787255 0.15336388 0.022631958 0 0 0 255
-0.10698596 0.15369615 0.020169737 0 0 0 255
-0.10644159 0.15389322 0.019932494 0 0 0 255
-0.10616782 0.15399392 0.01950774 0 0 0 255
-0.10567114 0.15417469 0.019237228 0 0 0 255
-0.10525019 0.15432788 0.018915104 0 0 0 255
-0.10484854 0.15447514 0.01857806 0 0 0 255
-0.10453971 0.15458862 0.018177949 0 0 0 255
-0.10426114 0.15469107 0.017756026 0 0 0 255
-0.10407105 0.15476239 0.017271634 0 0 0 255
-0.10384509 0.15484568 0.016812747 0 0 0 255
-0.10369615 0.15490203 0.016300518 0 0 0 255
-0.10381619 0.15486152 0.015601145 0 0 0 255
-0.092480898 0.15892859 0.021036051 0 0 0 255
-0.091681108 0.15921754 0.020976957 0 0 0 255
-0.091071866 0.15943821 0.020785298 0 0 0 255
-0.090509832 0.15964276 0.020561242 0 0 0 255
-0.090065286 0.15980455 0.020254634 0 0 0 255
-0.089682922 0.15994371 0.019905403 0 0 0 255
-0.089378051 0.16005574 0.019501962 0 0 0 255
-0.089133151 0.16014703 0.019056628 0 0 0 255
-0.08891198 0.16022857 0.018594913 0 0 0 255
-0.088763043 0.16028491 0.018082682 0 0 0 255
-0.090445086 0.15968548 0.01629382 0 0 0 255
-0.090406492 0.15970272 0.015704835 0 0 0 255
-0.09014897 0.15979752 0.015268127 0 0 0 255
-0.089837559 0.15991193 0.014868748 0 0 0 255
-0.089532681 0.16002394 0.014465306 0 0 0 255
-0.089219518 0.16013898 0.014067161 0 0 0 255
-0.088811323 0.16028756 0.013735546 0 0 0 255
-0.08846835 0.16041344 0.013358342 0 0 0 255
-0.088134959 0.16053584 0.012975479 0 0 0 255
-0.087841079 0.16064388 0.012563778 0 0 0 255
-0.087590568 0.16073611 0.012122144 0 0 0 255
-0.087403521 0.16080633 0.011636152 0 0 0 255
-0.087272123 0.16085628 0.0111116 0 0 0 255
-0.087163523 0.16089791 0.010571033 0 0 0 255
-0.087019838 0.16095233 0.010055104 0 0 0 255
-0.093349062 0.15871793 -0.000516342 0 0 0 255
-0.092978969 0.15885264 -0.00087419897 0 0 0 255
-0.092721798 0.15894838 -0.0013109064 0 0 0 255
-0.092443228 0.15905084 -0.0017328281 0 0 0 255
-0.092171676 0.15915073 -0.0021596784 0 0 0 255
-0.091930397 0.15923961 -0.002608344 0 0 0 255
-0.091685496 0.15933087 -0.0030536745 0 0 0 255
-0.091433227 0.15942374 -0.0034940783 0 0 0 255
-0.091180496 0.15951678 -0.003933616 0 0 0 255
-0.090967625 0.1595964 -0.0044019939 0 0 0 255
-0.090774029 0.15966792 -0.0048825555 0 0 0 255
-0.090476654 0.15977722 -0.0052917916 0 0 0 255
-0.090178803 0.15988669 -0.0057001617 0 0 0 255
-0.089925118 0.15998115 -0.0061393343 0 0 0 255
-0.089746036 0.1600474 -0.00663062 0 0 0 255
-0.089441165 0.16015941 -0.0070340605 0 0 0 255
-0.089227356 0.16023937 -0.0075007053 0 0 0 255
-0.088973813 0.16033271 -0.0079407422 0 0 0 255
-0.088714056 0.16042832 -0.0083753522 0 0 0 255
-0.088465773 0.16051973 -0.0088190874 0 0 0 255
-0.088250674 0.16060014 -0.0092853652 0 0 0 255
-0.13082694 0.14575011 0.04809143 0 0 0 255
-0.13026327 0.14595421 0.047867741 0 0 0 255
-0.12972836 0.14614888 0.047625702 0 0 0 255
-0.12914062 0.14636174 0.047418393 0 0 0 255
-0.12838198 0.14663573 0.04733146 0 0 0 255
-0.12809896 0.14674085 0.046912365 0 0 0 255
-0.12793121 0.14680403 0.046412822 0 0 0 255
-0.12768948 0.14689307 0.045965023 0 0 0 255
